80.2949 -70.7111 -43.849
81.3049 -70.5931 -51.665
82.3149 -70.5311 -51.5765
83.325 -70.8211 -43.5523
84.3348 -70.6921 -36.6699
85.345 -70.6495 -27.5556
86.3549 -70.78 -22.9178
87.365 -70.7437 -23.0152
88.3749 -70.7599 -23.0415
89.385 -70.8478 -23.0756
90.3949 -70.7849 -23.099
91.405 -70.8474 -23.1277
92.4149 -70.7886 -23.1215
93.425 -70.6711 -23.2478
94.4349 -70.6401 -26.6753
95.445 -70.6486 -27.7052
96.455 -70.6611 -28.167
-96.4551 -71.6721 -43.0917
-95.445 -71.6203 -43.114
-94.4351 -71.6758 -43.1228
-93.425 -71.6811 -43.1181
-92.4151 -71.6481 -41.31
-91.405 -71.8234 -39.7251
-90.3951 -71.7922 -33.6237
-89.385 -71.7217 -29.0084
-88.3751 -71.8227 -27.5669
-87.365 -71.8112 -25.1172
-86.3551 -71.7504 -23.9561
-85.345 -71.829 -23.9754
-84.3351 -71.9485 -23.9681
-83.325 -72.0057 -23.9408
-82.3151 -71.8851 -23.6963
-81.305 -71.8454 -23.6704
-80.295 -71.892 -23.8381
-79.2852 -71.8704 -23.8283
-78.2751 -71.8865 -23.862
-77.265 -71.9512 -23.8843
-76.2551 -71.8932 -23.8747
-75.2452 -71.9399 -27.3333
-74.2352 -71.8672 -31.9093
-73.2249 -71.8094 -32.5863
-72.2151 -71.8749 -33.3643
-71.2051 -71.8597 -39.0504
-70.1951 -71.9736 -52.3615
-69.1851 -71.8136 -52.369
-68.175 -71.6877 -50.264
-67.1651 -71.7551 -43.171
-66.155 -71.7361 -37.679
-65.1451 -71.6926 -36.5059
-64.135 -71.6517 -35.9033
-63.1251 -71.7327 -33.2651
-62.115 -71.7911 -33.259
-61.1051 -71.7173 -33.5928
-60.095 -71.7111 -33.5547
-59.0851 -71.7733 -33.1868
-58.075 -71.8871 -33.1476
-57.0651 -71.9005 -33.1331
-56.055 -71.778 -33.1115
-55.045 -71.8265 -33.1003
-54.0352 -71.8978 -33.0876
-53.0251 -71.8571 -33.0596
-52.015 -71.8055 -33.0452
-51.0051 -71.7805 -32.9895
-49.9952 -71.8346 -32.9378
-48.985 -71.8835 -32.8765
-47.9749 -71.8401 -34.4051
-46.9651 -71.782 -34.9458
-45.9551 -71.8172 -34.599
-44.9451 -71.9138 -40.4199
-43.9351 -71.82 -48.6312
-42.925 -71.6711 -51.428
-41.9151 -71.6071 -52.153
-40.905 -71.5898 -52.4536
-39.8951 -71.6204 -52.4703
-38.885 -71.6104 -52.499
-37.8751 -71.6119 -52.5105
-36.865 -71.6768 -51.814
-35.8551 -71.7078 -51.1003
-34.845 -71.7352 -51.4223
-33.8351 -71.7468 -52.1597
-32.825 -71.7211 -52.4843
-31.8151 -71.7178 -52.1856
-30.805 -71.6712 -52.1713
-29.795 -71.6581 -52.2766
-28.7852 -71.7842 -51.4982
-27.7751 -71.942 -51.0873
-26.765 -72.0278 -51.5973
-25.7551 -72.0051 -51.581
-24.7452 -71.9518 -51.244
-23.735 -71.9191 -51.2716
-22.7249 -71.8618 -51.823
-21.7151 -71.8475 -52.4735
-20.7051 -71.886 -52.465
-19.6951 -71.9688 -52.4259
-18.6851 -71.9917 -52.403
-17.675 -71.9326 -52.3705
-16.6651 -71.9647 -52.3497
-15.655 -71.9664 -52.3359
-14.6451 -71.957 -52.329
-13.635 -71.9374 -52.2233
-12.6251 -71.9371 -52.2113
-11.615 -71.9227 -52.282
-10.605 -71.9105 -52.2543
-9.59503 -71.9278 -52.2563
-8.58508 -71.8937 -52.2546
-7.57507 -71.8458 -52.2031
-6.565 -71.7658 -52.0266
-5.55499 -71.7602 -51.8194
-4.54504 -71.7123 -51.0015
-3.53528 -71.6272 -50.3298
-2.52496 -71.643 -50.2366
-1.51495 -71.7247 -50.5478
-0.505066 -71.7623 -51.3278
0.504761 -71.7238 -51.932
1.51477 -71.7007 -52.093
2.52515 -71.6708 -52.101
3.53491 -71.6835 -52.401
4.5448 -71.6827 -52.3962
5.55475 -71.6207 -52.3886
6.56506 -71.5911 -52.3793
7.57495 -71.5713 -52.3662
8.58484 -71.5266 -52.3708
9.59467 -71.5153 -52.3708
10.605 -71.5562 -52.3584
11.615 -71.5854 -52.3604
12.6249 -71.5428 -52.354
13.6349 -71.5771 -52.369
14.645 -71.7491 -52.397
15.6549 -71.7728 -52.3756
16.6649 -71.7711 -52.355
17.6749 -71.8031 -52.331
18.6849 -71.7411 -52.2256
19.6949 -71.7371 -52.137
20.705 -71.7378 -52.129
21.7149 -71.8128 -23.3356
22.7249 -71.8331 -5.39495
23.735 -71.7986 10.9519
24.7449 -71.7447 15.1489
25.7548 -71.7711 20.3389
26.765 -71.7828 30.7835
27.775 -71.7874 24.2492
28.7849 -71.791 22.7888
29.7949 -71.8195 18.7277
30.8049 -71.8591 1.82104
31.8149 -71.8111 -27.607
32.825 -71.7651 -42.279
33.835 -71.7244 -42.229
34.8449 -71.7211 -42.2665
35.8549 -71.7795 -42.3173
36.865 -71.8282 -42.339
37.8749 -71.8536 -42.4765
38.885 -71.8897 -42.6032
39.8949 -71.9211 -42.6123
40.9049 -71.905 -42.647
41.9149 -71.8328 -42.704
42.9249 -71.7511 -43.2145
43.9349 -71.7411 -43.2112
44.9449 -71.8123 -42.5978
45.955 -71.9011 -42.6077
46.9649 -71.9927 -42.824
47.9749 -71.9591 -42.821
48.9849 -71.8761 -42.7415
49.9949 -71.6531 -42.835
51.005 -71.7468 -42.9318
52.015 -71.8483 -42.6547
53.025 -71.7728 -42.2223
54.0349 -71.7897 -41.6347
55.0449 -71.804 -41.2447
56.0549 -71.6651 -41.207
57.0649 -71.5661 -41.244
58.075 -71.7278 -41.314
59.085 -71.8754 -41.3132
60.095 -71.8624 -41.3415
61.1049 -71.8348 -41.4165
62.115 -71.8026 -41.4118
63.1249 -71.8925 -41.4247
64.135 -71.8497 -41.4661
65.1449 -71.6768 -41.4718
66.1549 -71.6868 -41.5347
67.1649 -71.7654 -41.5404
68.1749 -71.8194 -41.1723
69.1849 -71.7382 -40.8432
70.1949 -71.7925 -40.7204
71.205 -71.9194 -40.5523
72.215 -71.7754 -40.5904
73.2249 -71.6722 -31.0456
74.235 -71.6774 -29.1344
75.2449 -71.7097 -31.213
76.2548 -71.7791 -31.3005
77.265 -71.8228 -37.1798
78.275 -71.7975 -39.9862
79.2849 -71.8525 -46.1047
80.2949 -71.8078 -51.5773
81.3049 -71.6094 -51.4673
82.3149 -71.6771 -43.403
83.325 -71.844 -30.079
84.335 -71.7478 -28.4806
85.345 -71.8078 -22.9906
86.3549 -71.8497 -23.0061
87.365 -71.7511 -23.029
88.3749 -71.7668 -23.0475
89.385 -71.8168 -23.0961
90.3949 -71.7867 -23.1075
91.4049 -71.7877 -23.1473
92.4149 -71.7061 -23.149
93.4249 -71.6328 -23.1523
94.4349 -71.5703 -26.3931
95.4451 -71.6976 -26.7168
96.455 -71.7548 -26.6444
-96.4551 -72.5852 -43.1273
-95.445 -72.6302 -43.119
-94.4351 -72.6902 -43.1156
-93.425 -72.6675 -43.1308
-92.4151 -72.6819 -43.1256
-91.405 -72.7249 -41.949
-90.3951 -72.7661 -38.5182
-89.385 -72.7819 -35.5931
-88.3751 -72.6801 -32.038
-87.365 -72.7242 -28.3813
-86.3551 -72.7854 -26.1832
-85.345 -72.7231 -23.915
-84.3351 -72.7778 -23.9101
-83.325 -72.8674 -23.8499
-82.3151 -72.8619 -23.7851
-81.305 -72.8486 -23.8423
-80.295 -72.8729 -23.9162
-79.2852 -72.8419 -23.8997
-78.2751 -72.7873 -23.909
-77.2651 -72.8199 -23.8834
-76.2551 -72.8802 -25.5617
-75.2452 -72.8528 -30.5259
-74.2351 -72.8353 -32.5811
-73.225 -72.8294 -40.1548
-72.2151 -72.8267 -43.5456
-71.2051 -73.0161 -52.369
-70.1951 -72.9011 -52.349
-69.1851 -72.6927 -52.3423
-68.175 -72.5225 -45.9818
-67.1651 -72.7964 -40.0336
-66.1552 -72.7501 -37.5613
-65.1451 -72.6227 -35.4656
-64.135 -72.6161 -33.2875
-63.1251 -72.714 -33.2704
-62.115 -72.8464 -33.2336
-61.1051 -72.8367 -33.2202
-60.095 -72.8123 -33.1958
-59.0851 -72.828 -33.1497
-58.075 -72.9454 -33.1268
-57.0651 -72.9953 -33.0806
-56.055 -72.8911 -33.0574
-55.045 -72.8686 -33.0373
-54.0352 -72.9484 -33.0153
-53.0251 -72.9268 -32.9854
-52.015 -72.8372 -32.9851
-51.0051 -72.7702 -32.9481
-49.9952 -72.8542 -32.9028
-48.985 -72.9603 -32.8774
-47.9749 -73.0461 -32.8282
-46.9651 -72.9224 -33.715
-45.9551 -72.9185 -35.659
-44.9451 -72.9751 -37.2003
-43.9351 -72.8711 -38.6201
-42.925 -72.8745 -45.1973
-41.915 -72.8611 -52.0234
-40.905 -72.8004 -52.4204
-39.8951 -72.7881 -52.4296
-38.885 -72.7836 -52.4446
-37.8751 -72.7474 -52.2796
-36.8651 -72.695 -52.0484
-35.8551 -72.6764 -51.7636
-34.845 -72.6968 -51.6346
-33.8351 -72.6716 -52.0472
-32.825 -72.7098 -52.481
-31.8151 -72.6665 -52.4628
-30.805 -72.6165 -52.4428
-29.795 -72.6258 -52.429
-28.7852 -72.599 -51.8104
-27.7751 -72.6918 -51.049
-26.765 -72.7798 -50.6727
-25.7551 -72.7448 -50.5179
-24.7452 -72.7706 -50.612
-23.735 -72.7557 -50.9237
-22.7249 -72.618 -51.2471
-21.7151 -72.6694 -51.4207
-20.7051 -72.6567 -51.219
-19.6951 -72.7133 -51.024
-18.6851 -72.8888 -51.9051
-17.675 -72.8857 -52.362
-16.6651 -72.928 -52.3013
-15.655 -72.9204 -52.3043
-14.6451 -72.8903 -52.3215
-13.635 -72.8725 -52.2963
-12.6251 -72.9097 -52.1916
-11.615 -72.9036 -52.1506
-10.605 -72.9078 -52.251
-9.59503 -73.0049 -52.2683
-8.58508 -72.989 -52.2175
-7.57507 -72.9274 -51.9933
-6.565 -72.8975 -51.7484
-5.55499 -72.8795 -51.6428
-4.54504 -72.9202 -51.7055
-3.53522 -72.9176 -51.9431
-2.52502 -72.896 -52.3062
-1.51495 -72.9106 -52.356
-0.505066 -72.9133 -52.0158
0.504822 -72.8881 -52.0253
1.51483 -72.8943 -52.258
2.52515 -72.8765 -52.2765
3.53491 -72.8532 -52.3923
4.5448 -72.8367 -52.3855
5.55475 -72.7965 -52.3786
6.56506 -72.7621 -52.3686
7.57495 -72.7705 -52.3612
8.58484 -72.7547 -52.362
9.59467 -72.7504 -52.3603
10.6049 -72.77 -52.3323
11.615 -72.6381 -52.365
12.6249 -72.6666 -52.3971
13.635 -72.6967 -52.3978
14.645 -72.7936 -52.399
15.6549 -72.785 -52.349
16.6649 -72.6911 -52.299
17.6749 -72.7532 -52.271
18.6849 -72.8111 -52.189
19.6949 -72.7686 -52.1115
20.705 -72.6583 -13.3304
21.7149 -72.67 -3.50673
22.7249 -72.762 8.26104
23.735 -72.795 12.4703
24.7449 -72.7736 12.5061
25.7548 -72.8326 13.9018
26.765 -72.7938 17.5065
27.775 -72.7045 22.681
28.7849 -72.6711 5.29771
29.7949 -72.7112 -2.72007
30.8049 -72.8511 12.796
31.8149 -72.8444 -17.819
32.825 -72.9278 -42.2556
33.835 -72.7911 -42.354
34.8449 -72.6611 -42.239
35.8549 -72.6944 -42.1823
36.8649 -72.8745 -42.419
37.8749 -72.8791 -42.565
38.8849 -72.8431 -42.569
39.895 -72.9061 -42.589
40.9049 -72.7928 -43.439
41.9149 -72.7611 -43.464
42.9249 -72.7882 -42.6704
43.9349 -72.7468 -42.679
44.9449 -72.8086 -42.4415
45.955 -72.8851 -42.392
46.9649 -72.8873 -42.4865
47.9749 -72.8086 -42.6765
48.9849 -72.7924 -42.8802
49.9949 -72.8141 -42.844
51.0049 -72.8229 -42.858
52.015 -72.8322 -42.9578
53.025 -72.8161 -43.0065
54.0349 -72.7791 -42.613
55.0449 -72.7601 -42.086
56.0549 -72.6282 -41.5147
57.0649 -72.4769 -41.2818
58.075 -72.6111 -41.3475
59.085 -72.7977 -41.3823
60.095 -72.8026 -41.4075
61.1049 -72.7978 -41.4606
62.115 -72.8111 -41.4573
63.1249 -72.8354 -41.4704
64.135 -72.8145 -41.5023
65.1449 -72.6697 -41.5132
66.1549 -72.6511 -41.5377
67.1649 -72.9197 -41.1261
68.1749 -72.9794 -40.8873
69.1849 -72.7571 -40.743
70.1949 -72.8271 -40.561
71.205 -72.9861 -40.6215
72.2149 -72.7611 -40.633
73.2249 -72.6686 -40.629
74.2349 -72.8361 -40.6765
75.2449 -72.7266 -31.0101
76.2549 -72.7393 -36.0071
77.265 -72.886 -44.3702
78.275 -73.017 -43.835
79.2849 -72.9736 -51.6515
80.2949 -72.8961 -51.6365
81.3049 -72.7971 -46.67
82.3148 -72.7386 -40.4448
83.325 -72.7523 -26.2256
84.3349 -72.7999 -22.889
85.345 -72.8186 -22.999
86.3549 -72.8736 -23.014
87.365 -72.8311 -23.0567
88.3749 -72.8489 -23.0712
89.385 -72.8686 -23.1002
90.3949 -72.8436 -23.134
91.405 -72.84 -23.1623
92.4149 -72.7889 -23.179
93.425 -72.7802 -23.19
94.4349 -72.8002 -23.187
95.445 -72.8701 -23.2845
96.455 -72.8453 -27.6861
-96.4551 -73.7391 -43.0043
-95.445 -73.714 -43.1047
-94.4351 -73.7604 -43.1354
-93.425 -73.741 -43.149
-92.415 -73.7122 -43.1523
-91.405 -73.8156 -43.1001
-90.3951 -73.8199 -43.0934
-89.385 -73.8128 -41.3515
-88.3751 -73.814 -35.1637
-87.365 -73.7711 -29.9404
-86.3551 -73.7312 -27.9466
-85.345 -73.674 -26.499
-84.3351 -73.6427 -23.9151
-83.325 -73.6756 -23.9108
-82.3151 -73.6756 -23.8935
-81.305 -73.6592 -23.8499
-80.295 -73.6188 -23.8523
-79.2851 -73.64 -23.8878
-78.2751 -73.6321 -23.867
-77.265 -73.582 -23.8599
-76.2551 -73.7093 -31.5126
-75.2452 -73.7573 -34.5199
-74.235 -73.7103 -36.7562
-73.225 -73.7949 -41.7765
-72.2151 -74.0086 -52.354
-71.2051 -74.0111 -52.3323
-70.1951 -73.9525 -48.1775
-69.1851 -73.853 -42.3333
-68.175 -73.8911 -38.8783
-67.1651 -73.8951 -36.232
-66.1552 -73.8215 -34.614
-65.1451 -73.7576 -33.2854
-64.135 -73.6518 -33.267
-63.1251 -73.6778 -33.2198
-62.115 -73.8039 -33.1935
-61.1051 -73.8047 -33.179
-60.095 -73.7721 -33.158
-59.0851 -73.7341 -33.116
-58.075 -73.8361 -33.067
-57.0651 -73.8084 -33.0562
-56.055 -73.7449 -33.0413
-55.045 -73.7828 -32.9931
-54.0352 -73.7739 -32.9753
-53.0251 -73.7675 -32.9653
-52.015 -73.6957 -32.9459
-51.0051 -73.5619 -32.9266
-49.9952 -73.7124 -32.879
-48.985 -73.8925 -32.857
-47.9749 -73.9934 -32.829
-46.9651 -73.8991 -33.8496
-45.9551 -73.7764 -34.7572
-44.9451 -73.8173 -37.0333
-43.9351 -73.855 -39.5313
-42.925 -73.77 -40.779
-41.915 -73.8848 -45.6715
-40.905 -73.9911 -51.1552
-39.8951 -73.8978 -52.4156
-38.885 -73.862 -52.4353
-37.8751 -73.7828 -52.4498
-36.865 -73.7657 -52.479
-35.8551 -73.7864 -51.8836
-34.845 -73.7993 -51.7848
-33.8351 -73.7616 -52.0884
-32.825 -73.7776 -52.2519
-31.8151 -73.7784 -52.4836
-30.805 -73.709 -51.9674
-29.795 -73.7306 -51.7518
-28.7852 -73.7291 -50.79
-27.775 -73.6888 -50.2721
-26.7649 -73.6876 -50.1082
-25.7551 -73.6957 -50.1029
-24.7452 -73.6843 -50.3862
-23.7351 -73.6859 -50.8021
-22.7249 -73.6716 -51.1251
-21.7151 -73.6969 -50.4437
-20.7051 -73.6911 -49.9075
-19.6952 -73.673 -50.6651
-18.6851 -73.6599 -51.7484
-17.675 -73.6126 -52.2905
-16.6651 -73.6753 -52.2548
-15.655 -73.6371 -52.307
-14.6451 -73.545 -52.284
-13.635 -73.6052 -52.3098
-12.6251 -73.6328 -52.2856
-11.615 -73.5678 -52.269
-10.6051 -73.6886 -52.2348
-9.59503 -73.8592 -51.028
-8.58508 -73.767 -51.0631
-7.57501 -73.6829 -51.8262
-6.56506 -73.6445 -51.7767
-5.55499 -73.7038 -51.9962
-4.54504 -73.7545 -52.1856
-3.53516 -73.8761 -52.366
-2.52509 -73.9318 -52.3697
-1.51495 -73.9771 -52.363
-0.505066 -73.9604 -52.1576
0.504822 -73.9476 -52.1966
1.51489 -73.9984 -52.3984
2.52509 -74.0706 -52.4005
3.53491 -74.0743 -52.3618
4.54486 -74.059 -52.3425
5.55475 -74.028 -52.3401
6.56506 -74.0163 -52.3323
7.57495 -74.043 -52.3373
8.58484 -74.0579 -52.345
9.59467 -74.0372 -52.3396
10.605 -73.9907 -52.349
11.615 -73.8401 -52.399
12.6249 -73.8311 -52.3967
13.635 -73.8168 -52.3647
14.645 -73.8191 -52.325
15.6549 -73.7994 -52.249
16.6649 -73.7228 -52.2406
17.6749 -73.7928 -52.204
18.6849 -73.8928 -52.1573
19.6949 -73.9311 -29.5506
20.705 -73.7975 -2.08533
21.7148 -73.7404 7.12247
22.7249 -73.7804 13.011
23.735 -73.7557 13.1564
24.7449 -73.7197 4.6389
25.7548 -73.7958 11.245
26.7648 -73.7899 21.6079
27.7751 -73.7564 20.993
28.7849 -73.8194 24.6677
29.7949 -73.8541 30.776
30.8049 -73.8141 23.474
31.8149 -73.8212 21.6873
32.825 -73.8087 12.551
33.835 -73.8345 -42.4256
34.8449 -73.7061 -42.4265
35.8549 -73.5844 -42.4323
36.8649 -73.7511 -42.509
37.8749 -73.8627 -42.4723
38.885 -73.8486 -42.5565
39.895 -73.8311 -42.714
40.9049 -73.8078 -42.7523
41.9149 -73.696 -42.719
42.9249 -73.649 -42.725
43.9349 -73.6861 -42.7473
44.9449 -73.784 -42.439
45.955 -73.904 -42.5032
46.9649 -73.8524 -42.5515
47.9749 -73.7886 -42.574
48.9849 -73.7944 -42.9123
49.9949 -73.8568 -42.9161
51.0049 -73.8524 -42.9652
52.015 -73.8168 -43.0018
53.025 -73.7994 -42.989
54.0349 -73.8083 -42.7575
55.0449 -73.7886 -42.3327
56.0549 -73.7221 -41.753
57.0649 -73.6553 -41.4298
58.075 -73.6552 -41.345
59.085 -73.7386 -41.394
60.095 -73.7444 -41.4278
61.1049 -73.7267 -41.4778
62.115 -73.7998 -41.519
63.1249 -73.8591 -41.548
64.135 -73.83 -41.5712
65.1449 -73.7477 -41.5078
66.155 -73.7311 -41.499
67.1649 -73.8348 -41.039
68.1749 -73.9111 -40.5575
69.1849 -73.8354 -40.6118
70.1949 -73.8697 -40.629
71.205 -73.9894 -40.634
72.2149 -73.9094 -40.6723
73.2249 -73.7661 -42.524
74.2349 -73.7711 -46.014
75.2449 -73.7261 -47.8306
76.2549 -73.7971 -51.637
77.265 -73.9054 -51.6747
78.275 -73.9311 -51.6523
79.2849 -73.8578 -51.5623
80.2949 -73.8711 -37.2961
81.3049 -73.7786 -28.4427
82.3149 -73.7095 -27.7823
83.325 -73.7978 -22.9256
84.335 -73.7444 -22.989
85.345 -73.7744 -23.0223
86.3549 -73.8427 -23.0473
87.365 -73.8711 -23.099
88.3749 -73.8911 -23.1106
89.385 -73.9161 -23.1177
90.3949 -73.8936 -23.1265
91.405 -73.9125 -23.1618
92.4149 -73.8411 -23.1761
93.4249 -73.8428 -23.194
94.4349 -73.8694 -23.2056
95.4449 -73.9145 -23.2323
96.455 -73.8381 -25.201
-96.4551 -74.8861 -42.9823
-95.445 -74.8665 -43.1235
-94.4351 -74.792 -43.1371
-93.425 -74.7736 -43.1348
-92.415 -74.7399 -43.1312
-91.405 -74.7644 -43.0867
-90.3951 -74.7378 -43.0778
-89.385 -74.7662 -43.073
-88.3751 -74.7293 -42.4262
-87.365 -74.7811 -36.1428
-86.3551 -74.8167 -30.389
-85.345 -74.7645 -26.8551
-84.3351 -74.7595 -25.0006
-83.325 -74.6868 -23.9025
-82.3151 -74.6718 -23.879
-81.305 -74.6885 -23.8876
-80.295 -74.663 -23.8896
-79.2852 -74.688 -23.8765
-78.2751 -74.7278 -24.243
-77.2649 -74.7507 -31.2305
-76.2551 -74.7011 -33.803
-75.2451 -74.6044 -36.3748
-74.235 -74.6578 -43.2256
-73.225 -74.8845 -52.389
-72.2151 -74.8811 -52.377
-71.2051 -74.8436 -52.3665
-70.1951 -74.814 -46.4518
-69.1851 -74.9446 -39.6354
-68.175 -74.8921 -38.2116
-67.1651 -74.8282 -37.5967
-66.155 -74.9544 -33.269
-65.1451 -74.883 -33.2558
-64.135 -74.7686 -33.2546
-63.1251 -74.7241 -33.2282
-62.115 -74.7686 -33.1277
-61.1051 -74.768 -33.0921
-60.095 -74.7911 -33.1063
-59.0851 -74.777 -33.0878
-58.075 -74.7531 -33.0603
-57.0651 -74.7319 -33.0365
-56.055 -74.6588 -33.032
-55.045 -74.6857 -32.9905
-54.0352 -74.6534 -32.9682
-53.0251 -74.6511 -32.9436
-52.015 -74.6182 -32.9147
-51.0051 -74.5886 -32.8808
-49.9952 -74.7017 -32.8452
-48.985 -74.7889 -32.822
-47.975 -74.8102 -32.7981
-46.9651 -74.7357 -32.7799
-45.9551 -74.6728 -32.7298
-44.9451 -74.691 -35.8602
-43.9351 -74.8002 -36.8185
-42.925 -74.86 -37.6025
-41.9151 -74.8383 -39.9118
-40.905 -74.8497 -42.8461
-39.8951 -74.7471 -51.743
-38.885 -74.8123 -52.4045
-37.8751 -74.7865 -52.412
-36.865 -74.7947 -52.4332
-35.8551 -74.8762 -52.2156
-34.845 -74.9142 -52.0328
-33.8351 -74.9018 -52.0832
-32.825 -74.8998 -52.069
-31.8151 -74.9211 -51.567
-30.805 -74.8951 -51.793
-29.795 -74.8671 -51.394
-28.7853 -74.7968 -50.0368
-27.7749 -74.7637 -49.8375
-26.7649 -74.8133 -49.7596
-25.7551 -74.8131 -49.6807
-24.7452 -74.7668 -50.322
-23.7352 -74.7676 -50.7643
-22.725 -74.7191 -50.728
-21.7151 -74.7619 -50.1814
-20.7052 -74.8457 -49.203
-19.6952 -74.7706 -49.725
-18.685 -74.7354 -51.4063
-17.675 -74.7264 -52.1313
-16.6651 -74.7352 -52.3778
-15.6552 -74.7185 -52.3253
-14.645 -74.6961 -52.1828
-13.635 -74.6864 -52.1453
-12.6251 -74.6739 -52.269
-11.6151 -74.6753 -52.296
-10.605 -74.7076 -52.291
-9.59503 -74.7189 -52.234
-8.58508 -74.6932 -51.7658
-7.57513 -74.6375 -51.6658
-6.565 -74.577 -51.8913
-5.55499 -74.6396 -51.998
-4.54504 -74.6252 -52.1872
-3.53522 -74.5373 -52.3743
-2.52509 -74.5847 -52.3711
-1.51495 -74.5858 -52.3767
-0.505066 -74.6234 -52.3766
0.504822 -74.654 -52.3897
1.51501 -74.6245 -52.405
2.52502 -74.6784 -52.3935
3.53491 -74.8825 -52.3318
4.54492 -74.8686 -52.2952
5.55493 -74.7711 -52.2952
6.56494 -74.89 -52.3012
7.57495 -75.0061 -52.3115
8.58496 -74.8828 -52.354
9.59497 -74.7426 -52.3447
10.6049 -74.7925 -52.3947
11.615 -74.8383 -52.4118
12.6249 -74.7999 -52.3227
13.635 -74.7744 -52.2845
14.6449 -74.8078 -52.2506
15.6549 -74.7891 -52.203
16.6649 -74.7011 -52.175
17.6749 -74.8331 -52.155
18.6849 -74.874 -36.4132
19.6949 -74.76 6.14437
20.705 -74.7911 23.1877
21.7148 -74.7491 0.557045
22.7249 -74.7075 1.94195
23.735 -74.7552 -0.524788
24.7449 -74.725 -3.01819
25.7549 -74.7284 10.7638
26.765 -74.7921 16.119
27.775 -74.822 4.13013
28.7849 -74.8555 6.34548
29.7949 -74.7522 30.7477
30.8049 -74.7644 30.8122
31.8149 -74.8591 30.8511
32.825 -74.8031 16.119
33.835 -74.8986 -5.75146
34.8449 -74.8136 -42.429
35.8549 -74.7691 -42.499
36.8649 -74.8044 -42.5156
37.8749 -74.8611 -42.5923
38.8849 -74.9111 -42.649
39.895 -74.7244 -42.7056
40.9049 -74.6161 -42.7615
41.9149 -74.6894 -42.7473
42.9249 -74.7444 -42.7523
43.9349 -74.7223 -42.8177
44.9449 -74.8361 -42.8423
45.955 -74.924 -42.8275
46.9649 -74.8478 -42.8756
47.9749 -74.7955 -42.9178
48.9849 -74.7561 -42.9415
49.9949 -74.8156 -42.9778
51.0049 -74.8322 -42.9934
52.015 -74.8431 -43.041
53.025 -74.7924 -43.0965
54.0349 -74.7861 -43.0865
55.0449 -74.8298 -43.1065
56.0549 -74.8668 -42.899
57.0649 -74.9165 -42.4171
58.075 -74.8421 -42.029
59.085 -74.7394 -41.4706
60.095 -74.7382 -41.4618
61.1049 -74.7068 -41.5218
62.115 -74.8027 -41.519
63.1249 -74.9525 -41.5504
64.135 -74.9411 -41.639
65.1449 -74.7978 -41.5606
66.1549 -74.7611 -41.5975
67.1649 -74.7936 -41.234
68.1749 -74.8553 -40.7961
69.1849 -74.8451 -40.609
70.1949 -74.8811 -40.701
71.205 -75.0586 -40.6915
72.2149 -74.8931 -42.871
73.2249 -74.6871 -45.053
74.2349 -74.8077 -46.529
75.2449 -74.9071 -47.701
76.2549 -74.9211 -51.6515
77.265 -74.9611 -51.673
78.275 -75.0036 -51.6515
79.2849 -74.9124 -45.9202
80.2948 -74.7436 -37.6356
81.3049 -74.64 -28.4756
82.3149 -74.6795 -22.869
83.325 -74.6026 -22.9175
84.335 -74.5528 -23.0073
85.345 -74.6725 -23.0447
86.3549 -74.7311 -23.0732
87.365 -74.6727 -23.1206
88.3749 -74.6944 -23.1206
89.385 -74.8961 -23.139
90.3949 -74.8611 -23.164
91.4049 -74.7844 -23.1906
92.4149 -74.7811 -23.1904
93.425 -74.7268 -23.2004
94.4349 -74.6661 -23.2156
95.4449 -74.6961 -23.249
96.455 -74.8344 -23.2556
-96.4551 -75.9619 -42.9097
-95.445 -75.9634 -42.999
-94.4351 -75.7361 -43.1306
-93.425 -75.7057 -43.142
-92.4151 -75.7686 -43.1423
-91.405 -75.7578 -43.1373
-90.3951 -75.7489 -43.1523
-89.385 -75.7423 -43.1252
-88.3751 -75.6901 -43.093
-87.365 -75.7281 -43.088
-86.3551 -75.8362 -35.4254
-85.345 -75.8105 -31.079
-84.3351 -75.8942 -28.583
-83.3251 -75.939 -26.2184
-82.3151 -75.8551 -23.8536
-81.305 -75.8511 -23.8456
-80.295 -75.8775 -23.844
-79.2852 -75.8917 -23.8371
-78.2749 -75.8619 -29.7501
-77.2649 -75.816 -31.8165
-76.2551 -75.7574 -35.9452
-75.2451 -75.7231 -39.308
-74.235 -75.7161 -51.764
-73.225 -75.8978 -52.3723
-72.2151 -75.8944 -52.3456
-71.2051 -75.8902 -43.9026
-70.1951 -75.8644 -37.0431
-69.1851 -75.7635 -38.5346
-68.175 -75.764 -38.9732
-67.1651 -75.8593 -33.2853
-66.155 -75.9511 -33.274
-65.1451 -75.9886 -33.2498
-64.135 -75.8665 -33.2159
-63.1251 -75.8604 -33.1682
-62.115 -75.9072 -33.002
-61.1051 -75.8376 -32.9366
-60.095 -75.8405 -32.9983
-59.0851 -75.8874 -33.0535
-58.075 -75.8611 -33.0263
-57.0651 -75.8511 -32.9984
-56.055 -75.7904 -32.967
-55.045 -75.7805 -32.9283
-54.0352 -75.7832 -32.911
-53.0251 -75.7538 -32.9016
-52.015 -75.7242 -32.8733
-51.0051 -75.7167 -32.8371
-49.9952 -75.7629 -32.8246
-48.985 -75.8067 -32.8021
-47.9749 -75.8181 -32.7731
-46.9651 -75.7605 -32.7542
-45.9551 -75.744 -32.7301
-44.9451 -75.7446 -33.6325
-43.9351 -75.7227 -33.3512
-42.925 -75.8082 -34.2972
-41.9151 -75.8932 -37.404
-40.905 -75.8852 -39.9065
-39.8951 -75.8401 -45.285
-38.885 -75.7049 -51.7927
-37.8751 -75.6191 -52.311
-36.865 -75.6821 -52.3362
-35.8551 -75.862 -52.4173
-34.845 -75.9369 -52.4315
-33.8351 -75.8726 -51.9767
-32.825 -75.892 -51.9162
-31.8151 -75.9042 -51.868
-30.805 -75.9086 -50.633
-29.795 -75.8505 -50.769
-28.7852 -75.8658 -50.2669
-27.7749 -75.9359 -49.2442
-26.7649 -75.9744 -49.3349
-25.7551 -75.9532 -50.0243
-24.7452 -75.9419 -50.649
-23.7352 -75.9686 -50.674
-22.7249 -75.9357 -50.8519
-21.7151 -75.9184 -50.2516
-20.7052 -75.9203 -49.4178
-19.6953 -75.9166 -50.0252
-18.685 -75.9056 -51.379
-17.675 -75.8983 -52.1018
-16.6651 -75.9218 -52.1165
-15.6552 -75.9211 -52.3745
-14.6451 -75.9161 -52.3418
-13.635 -75.8467 -52.3433
-12.6251 -75.808 -52.3127
-11.615 -75.8354 -52.2861
-10.605 -75.8929 -52.2858
-9.59503 -75.8596 -50.929
-8.58508 -75.8359 -50.8628
-7.57513 -75.8323 -51.544
-6.565 -75.7787 -51.6784
-5.55499 -75.8055 -52.3467
-4.54504 -75.7766 -52.3656
-3.53522 -75.7178 -52.3773
-2.52496 -75.7106 -52.3861
-1.51495 -75.7216 -52.3775
-0.505066 -75.7587 -52.3918
0.504761 -75.755 -52.3929
1.51477 -75.7386 -52.3635
2.52509 -75.6835 -52.3499
3.53491 -75.6543 -52.3367
4.5448 -75.6349 -52.3336
5.55475 -75.6203 -52.3401
6.56506 -75.6104 -52.3416
7.57495 -75.5935 -52.3461
8.58484 -75.5221 -52.3688
9.59467 -75.5191 -52.3796
10.605 -75.5929 -52.3847
11.615 -75.6896 -52.3618
12.6249 -75.6983 -52.2832
13.635 -75.7354 -52.2504
14.6449 -75.7678 -52.2423
15.6549 -75.8436 -51.834
16.6649 -75.7761 -51.4215
17.675 -75.7357 -23.1462
18.6849 -75.7386 -7.28396
19.695 -75.7744 16.9844
20.705 -75.715 19.1726
21.7148 -75.725 6.39258
22.7249 -75.7955 13.6918
23.735 -75.8217 16.093
24.7449 -75.8243 11.4626
25.7548 -75.7885 11.4616
26.7648 -75.8222 13.5069
27.7751 -75.8697 9.81034
28.7849 -75.8185 10.731
29.7949 -75.7758 20.965
30.8049 -75.7861 25.5053
31.8149 -75.7944 30.7166
32.825 -75.8156 30.7044
33.835 -75.9144 30.6727
34.8449 -75.8878 -18.0456
35.8549 -75.8211 -42.4023
36.8649 -75.8561 -42.519
37.8749 -75.7011 -42.609
38.8849 -75.7211 -42.639
39.895 -75.9844 -42.449
40.9049 -75.9461 -42.554
41.9149 -75.9361 -42.829
42.9249 -75.8686 -42.8315
43.9349 -75.7836 -42.849
44.9449 -75.8151 -42.901
45.955 -75.8483 -42.9061
46.9649 -75.8899 -42.884
47.9749 -75.8699 -42.9334
48.9849 -75.8336 -43.0077
49.9949 -75.8411 -43.0215
51.0049 -75.8361 -42.9265
52.015 -75.9054 -42.9518
53.025 -75.8551 -43.083
54.0349 -75.7828 -43.1173
55.0449 -75.8211 -43.1665
56.0549 -75.8553 -42.8861
57.0649 -76.0068 -42.6604
58.075 -75.9055 -42.0023
59.085 -75.7522 -41.4301
60.095 -75.7045 -41.5056
61.1049 -75.6323 -41.5327
62.115 -75.6927 -41.5523
63.1249 -75.8722 -41.6001
64.135 -75.8786 -41.6627
65.1449 -75.7636 -41.6565
66.1549 -75.7477 -41.6334
67.1649 -75.8145 -41.4001
68.1749 -75.8373 -41.404
69.1849 -75.7911 -41.0635
70.195 -75.7921 -40.783
71.205 -75.9071 -42.851
72.215 -75.8854 -46.9061
73.2249 -75.801 -48.8627
74.2349 -75.8383 -50.069
75.2449 -75.8311 -51.655
76.2549 -75.846 -51.6673
77.265 -75.9811 -51.6602
78.275 -76.0478 -39.2201
79.2849 -75.9186 -27.1002
80.2949 -75.7311 -23.134
81.3049 -75.7697 -22.8561
82.3149 -75.7048 -22.9502
83.325 -75.6857 -23.0244
84.3349 -75.6752 -23.051
85.345 -75.7278 -23.0923
86.3549 -75.7789 -23.1045
87.365 -75.7122 -23.1301
88.3749 -75.7289 -23.1401
89.385 -75.8236 -23.1602
90.3949 -75.8011 -23.179
91.405 -75.7449 -23.2052
92.4149 -75.8345 -23.209
93.425 -75.7661 -23.2252
94.4349 -75.6698 -23.2377
95.445 -75.7556 -23.259
96.455 -75.8521 -23.2767
-96.4551 -76.8747 -43.1362
-95.4451 -76.8867 -43.1056
-94.4351 -76.7091 -43.103
-93.425 -76.6502 -43.129
-92.4151 -76.6884 -43.1444
-91.405 -76.728 -43.1497
-90.3951 -76.7565 -43.1462
-89.385 -76.8393 -43.118
-88.3751 -76.8519 -43.0866
-87.365 -76.8711 -43.0926
-86.3551 -76.9161 -43.104
-85.345 -76.8519 -37.5306
-84.3351 -76.8861 -33.5811
-83.325 -76.981 -29.7198
-82.3151 -76.9741 -26.0336
-81.305 -76.9031 -23.82
-80.295 -76.9355 -23.8256
-79.2852 -76.9301 -31.883
-78.275 -76.8907 -34.5599
-77.265 -76.7311 -37.9556
-76.2551 -76.7474 -43.9015
-75.2451 -76.9211 -51.7656
-74.235 -76.6831 -52.349
-73.225 -76.8011 -52.3573
-72.2151 -76.8028 -47.8756
-71.2051 -76.7688 -40.4623
-70.1951 -76.7105 -38.5467
-69.1851 -76.6774 -36.5316
-68.175 -76.6678 -33.2923
-67.1651 -76.6721 -33.229
-66.155 -76.8644 -33.1931
-65.1451 -76.9857 -33.1982
-64.135 -76.8634 -33.1851
-63.1251 -76.832 -33.094
-62.115 -76.9228 -33.0648
-61.1051 -76.8826 -33.0974
-60.095 -76.8488 -33.0582
-59.0851 -76.8997 -33.0247
-58.075 -76.9586 -32.9981
-57.0651 -77.0039 -32.9532
-56.055 -76.9542 -32.9382
-55.045 -76.9294 -32.9098
-54.0352 -76.9394 -32.8815
-53.0251 -76.9332 -32.844
-52.015 -76.8931 -32.8276
-51.0051 -76.8304 -32.812
-49.9952 -76.9218 -32.7975
-48.985 -77.0004 -32.7723
-47.9749 -76.9799 -32.7283
-46.9651 -76.9191 -32.727
-45.9551 -76.9023 -32.694
-44.9451 -76.9705 -32.6527
-43.9351 -76.9198 -32.6176
-42.925 -76.8617 -35.5916
-41.9152 -76.8925 -35.8412
-40.905 -76.9117 -35.6108
-39.8951 -76.9044 -38.5334
-38.885 -76.9061 -44.6256
-37.8751 -76.7178 -52.0223
-36.865 -76.7194 -52.4065
-35.8551 -76.7993 -52.4262
-34.845 -76.8378 -52.4073
-33.8351 -76.7857 -51.949
-32.825 -76.7211 -51.6806
-31.8151 -76.7571 -51.278
-30.805 -76.7124 -51.019
-29.795 -76.666 -50.7151
-28.7852 -76.7673 -50.0451
-27.7751 -76.8331 -50.0043
-26.765 -76.9342 -49.9774
-25.7551 -77.002 -50.5808
-24.7451 -76.8887 -52.364
-23.735 -76.7991 -51.758
-22.725 -76.7951 -50.225
-21.7151 -76.8591 -48.645
-20.7051 -76.9604 -48.4763
-19.6953 -76.9512 -48.6507
-18.6849 -76.8862 -48.8977
-17.675 -76.8239 -50.1068
-16.6651 -76.8991 -52.456
-15.655 -76.9542 -52.4359
-14.6451 -76.9678 -52.419
-13.635 -76.918 -52.364
-12.6251 -76.9178 -52.3403
-11.615 -76.9273 -52.302
-10.6051 -77.0088 -52.3113
-9.59503 -77.0645 -52.3256
-8.58508 -76.9672 -49.944
-7.57513 -76.9128 -49.5912
-6.56506 -76.954 -51.8918
-5.55499 -76.9548 -52.3758
-4.54504 -76.9836 -52.3833
-3.53522 -77.0106 -52.3832
-2.52496 -76.9716 -52.3866
-1.51495 -76.9986 -52.3865
-0.505066 -77.0543 -52.3732
0.504822 -77.0348 -52.3584
1.51483 -77.0101 -52.3513
2.52509 -76.9816 -52.2875
3.53491 -76.9611 -52.2552
4.5448 -76.9619 -52.3051
5.55475 -76.9336 -52.3365
6.56506 -76.9119 -52.3507
7.57495 -76.9156 -52.3649
8.58484 -76.8931 -52.0693
9.59467 -76.8656 -51.9367
10.6049 -76.73 -52.3345
11.615 -76.6733 -52.3034
12.6249 -76.6667 -52.2578
13.635 -76.7 -52.2223
14.6449 -76.7636 -52.1915
15.6549 -76.8448 -51.069
16.6649 -76.8077 -23.5412
17.6749 -76.7325 7.06676
18.6849 -76.7311 -1.91785
19.695 -76.804 9.76818
20.705 -76.8138 30.782
21.7149 -76.7311 20.3835
22.7249 -76.7631 15.141
23.735 -76.842 10.7747
24.7449 -76.8795 6.31688
25.7548 -76.8257 13.8341
26.765 -76.8621 16.087
27.775 -76.9031 1.48405
28.7849 -76.8026 8.22412
29.7949 -76.7944 20.933
30.8049 -76.8461 24.5952
31.8149 -76.8611 30.721
32.825 -76.8721 23.9601
33.8349 -76.9021 8.93903
34.8449 -76.8771 16.441
35.8549 -76.8577 6.37437
36.8649 -76.9211 -42.6056
37.8749 -76.8191 -42.649
38.8849 -76.751 -42.659
39.895 -77.1361 -42.799
40.9049 -77.1361 -42.799
41.9149 -76.6111 -42.479
42.9249 -76.6051 -42.727
43.9349 -76.639 -42.923
44.9449 -76.7751 -42.917
45.955 -76.7378 -42.9206
46.965 -76.9039 -42.9775
47.9749 -76.9133 -42.9845
48.9849 -76.8923 -43.0015
49.9949 -76.8489 -43.0412
51.0049 -76.8633 -43.0945
52.015 -76.9124 -43.1565
53.0249 -76.8068 -43.0861
54.0349 -76.7686 -43.0315
55.0449 -76.8591 -43.205
56.0549 -76.9086 -43.234
57.0649 -76.9789 -43.0301
58.075 -76.9412 -42.7956
59.085 -76.8198 -42.2977
60.095 -76.7466 -41.6867
61.1049 -76.7444 -41.5423
62.115 -76.7911 -41.5806
63.1249 -76.8397 -41.6375
64.135 -76.8297 -41.6504
65.1449 -76.6844 -41.6556
66.1549 -76.6582 -41.6761
67.1649 -76.774 -41.629
68.1749 -76.8061 -41.574
69.1849 -76.8761 -41.1927
70.195 -76.8621 -41.958
71.205 -76.8273 -44.564
72.215 -76.8625 -46.7732
73.2249 -76.8277 -48.059
74.2349 -76.8891 -49.495
75.2449 -76.9586 -51.684
76.2549 -76.9661 -51.7165
77.265 -77.0311 -40.849
78.275 -76.9377 -34.4506
79.2849 -76.8398 -27.2815
80.2949 -76.8311 -23.009
81.3049 -76.8889 -23.0212
82.3149 -76.9067 -23.0434
83.325 -76.8224 -23.0577
84.335 -76.7462 -23.079
85.345 -76.7761 -23.099
86.3549 -76.8461 -23.1073
87.365 -76.8026 -23.149
88.3749 -76.8197 -23.1447
89.385 -76.8954 -23.1647
90.3949 -76.8682 -23.1875
91.405 -76.8054 -23.2175
92.4149 -76.8754 -23.2318
93.425 -76.8574 -23.239
94.4349 -76.7586 -23.2365
95.445 -76.8297 -23.2618
96.455 -76.9483 -23.279
-96.4551 -77.6627 -42.9628
-95.445 -77.6861 -42.9356
-94.4351 -77.7245 -43.1123
-93.425 -77.6669 -43.1273
-92.4151 -77.7449 -43.1536
-91.405 -77.8424 -43.1533
-90.3951 -77.8542 -43.1451
-89.385 -77.9011 -43.138
-88.3751 -77.8955 -43.129
-87.365 -77.9211 -43.1167
-86.3551 -78.02 -43.1156
-85.3451 -78.0386 -41.314
-84.3351 -77.8868 -33.5782
-83.325 -77.7661 -31.0768
-82.3151 -77.7194 -27.5398
-81.305 -77.7502 -25.2431
-80.295 -77.7521 -31.2251
-79.2853 -77.752 -32.1711
-78.2751 -77.6503 -34.4106
-77.2651 -77.6469 -40.6547
-76.2551 -77.8711 -52.0965
-75.2451 -77.8386 -52.3565
-74.235 -77.8031 -52.327
-73.225 -77.8565 -42.6962
-72.2151 -77.9553 -38.8748
-71.2051 -77.8511 -37.8511
-70.1951 -77.7592 -35.648
-69.1851 -77.728 -33.299
-68.175 -77.7332 -33.2697
-67.1651 -77.7839 -33.244
-66.155 -77.8896 -33.1968
-65.1451 -77.9227 -33.1573
-64.135 -77.8177 -33.137
-63.1251 -77.8245 -33.101
-62.115 -77.8894 -33.0723
-61.1051 -77.8127 -33.0848
-60.095 -77.7582 -33.047
-59.0851 -77.7271 -32.99
-58.075 -77.7902 -32.9662
-57.0651 -77.8831 -32.921
-56.055 -77.7831 -32.921
-55.045 -77.7861 -32.8765
-54.0352 -77.7611 -32.8544
-53.0251 -77.7941 -32.841
-52.015 -77.7831 -32.811
-51.0051 -77.6303 -32.7831
-49.9951 -77.6971 -32.753
-48.985 -77.8771 -32.694
-47.975 -77.8853 -32.6756
-46.9651 -77.8229 -32.6417
-45.9551 -77.8065 -32.6171
-44.9451 -77.8838 -32.6008
-43.9351 -77.9204 -32.5603
-42.925 -78.0244 -32.5456
-41.9151 -77.9694 -32.4781
-40.905 -77.8758 -36.9384
-39.8951 -77.8836 -39.4246
-38.885 -77.8322 -42.5612
-37.8751 -77.8445 -48.9778
-36.865 -77.9236 -51.1427
-35.8551 -77.92 -52.095
-34.845 -77.8761 -52.4061
-33.8351 -77.8904 -52.374
-32.825 -77.8418 -52.1616
-31.8151 -77.7417 -51.3872
-30.805 -77.7476 -51.5754
-29.795 -77.7169 -51.1869
-28.7853 -77.6746 -50.6898
-27.7749 -77.689 -50.4619
-26.7649 -77.7701 -50.4076
-25.7551 -77.8146 -51.0295
-24.7452 -77.7876 -51.9466
-23.735 -77.7318 -51.9566
-22.7249 -77.6144 -50.8434
-21.7151 -77.6438 -50.0994
-20.7052 -77.6606 -50.2682
-19.6952 -77.6376 -50.6275
-18.6851 -77.6818 -51.1277
-17.675 -77.6561 -51.8661
-16.6651 -77.6483 -52.4747
-15.655 -77.6834 -52.4436
-14.6451 -77.6552 -52.416
-13.635 -77.7026 -52.3643
-12.6251 -77.681 -52.3426
-11.615 -77.6901 -52.313
-10.6051 -77.7603 -52.3073
-9.59509 -77.6455 -52.3145
-8.58508 -77.6393 -52.3026
-7.57501 -77.6111 -52.324
-6.56506 -77.552 -52.359
-5.55499 -77.7219 -52.3451
-4.54504 -77.8136 -52.3406
-3.5351 -77.8 -52.3512
-2.52509 -77.795 -52.349
-1.51508 -77.7955 -52.3478
-0.505066 -77.8749 -52.344
0.504944 -77.8711 -52.3223
1.51495 -77.9271 -52.143
2.52496 -77.92 -51.9801
3.53491 -77.8701 -52.1534
4.54492 -77.8789 -52.3134
5.55493 -77.7924 -52.3565
6.56494 -77.7567 -52.3623
7.57495 -77.8451 -52.409
8.58496 -77.9389 -52.3923
9.59497 -77.8851 -52.265
10.6049 -77.8686 -52.2481
11.615 -77.8383 -52.249
12.6249 -77.7648 -52.179
13.635 -77.7936 -52.1702
14.6449 -77.8577 -46.0856
15.655 -77.9375 -17.0599
16.6649 -77.7842 2.17104
17.6749 -77.7399 12.631
18.6851 -77.821 0.641052
19.695 -77.8511 4.1716
20.705 -77.8434 17.988
21.7148 -77.7795 17.7235
22.7249 -77.7761 20.271
23.735 -77.8096 15.0267
24.7449 -77.8583 20.2418
25.7548 -77.839 25.4696
26.7649 -77.8542 19.4503
27.7751 -77.8761 15.0239
28.7849 -77.8405 16.063
29.7949 -77.8898 16.9648
30.8049 -77.8948 7.80479
31.8149 -77.8961 6.27937
32.825 -77.8566 24.062
33.8349 -77.7728 18.6077
34.845 -77.8702 -2.96896
35.8549 -77.8999 -6.47646
36.8649 -77.8762 -5.65396
37.8749 -77.9145 -42.5656
38.8849 -77.8112 -42.689
39.895 -77.9511 -42.789
40.9049 -77.7478 -42.5556
41.9149 -77.5111 -42.564
42.9249 -77.7711 -42.934
43.9349 -77.8011 -42.899
44.9449 -77.6311 -42.9256
45.955 -77.6611 -42.9365
46.9649 -77.8478 -42.9973
47.9749 -77.8712 -43.029
48.9849 -77.8994 -43.0856
49.9949 -77.8948 -43.0677
51.0049 -77.9086 -43.089
52.015 -77.9294 -43.1873
53.025 -77.8451 -43.233
54.0349 -77.7911 -43.2415
55.0449 -77.8031 -43.249
56.0549 -77.8761 -43.2806
57.0649 -78.024 -43.2975
58.075 -77.9797 -42.9147
59.085 -77.8168 -42.269
60.095 -77.7911 -41.9567
61.1049 -77.7661 -41.7077
62.115 -77.8078 -41.5856
63.1249 -77.86 -41.626
64.135 -77.8501 -41.681
65.1449 -77.7544 -41.7034
66.155 -77.7361 -41.722
67.1649 -77.8521 -41.742
68.1749 -77.8799 -41.7545
69.1849 -77.9124 -42.9502
70.1949 -77.9012 -44.8067
71.205 -77.8533 -48.3134
72.2149 -77.9111 -50.564
73.2249 -77.9744 -51.6606
74.2349 -77.9795 -51.6906
75.2449 -77.9361 -51.669
76.2549 -77.8577 -44.029
77.265 -77.8561 -29.484
78.275 -77.9211 -22.707
79.2849 -77.8997 -22.9247
80.2949 -77.881 -22.9404
81.3049 -77.8828 -23.0406
82.3149 -77.8311 -23.0561
83.325 -77.7922 -23.1034
84.3349 -77.7444 -23.139
85.345 -77.7086 -23.1452
86.3549 -77.7673 -23.1365
87.365 -77.7811 -23.1627
88.3749 -77.8011 -23.1752
89.385 -77.9111 -23.1823
90.3949 -77.8933 -23.1978
91.405 -77.8389 -23.2234
92.4149 -77.8955 -23.2301
93.425 -77.9073 -23.239
94.4349 -77.8086 -23.259
95.445 -77.8436 -23.3002
96.455 -77.9548 -23.3002
-96.4551 -78.8577 -43.1272
-95.445 -78.8511 -43.134
-94.4351 -78.7728 -42.8856
-93.425 -78.749 -42.9168
-92.4151 -78.8349 -42.8805
-91.405 -78.9003 -43.0065
-90.3951 -78.8491 -43.147
-89.385 -78.8722 -43.1101
-88.3751 -78.8223 -43.119
-87.365 -78.8311 -43.1561
-86.3551 -78.8925 -43.1404
-85.3451 -78.9011 -43.1006
-84.3351 -78.8571 -39.124
-83.325 -78.8397 -33.614
-82.3151 -78.8864 -29.8219
-81.3049 -78.8339 -32.0209
-80.295 -78.7476 -33.6203
-79.2852 -78.6901 -32.8195
-78.2751 -78.722 -34.5326
-77.2651 -78.6461 -51.439
-76.2551 -78.8111 -52.271
-75.2451 -78.8494 -49.2223
-74.235 -78.8356 -43.7912
-73.2249 -78.9484 -38.8784
-72.2151 -78.9343 -36.8737
-71.2051 -78.8451 -36.133
-70.1951 -78.8776 -33.2832
-69.1851 -78.9211 -33.2647
-68.175 -78.9625 -33.2275
-67.1651 -78.9481 -33.1974
-66.155 -78.9733 -33.1682
-65.1451 -78.9484 -33.141
-64.135 -78.8827 -33.0759
-63.1251 -78.8953 -32.9715
-62.115 -78.921 -32.9451
-61.1051 -78.8304 -33.0075
-60.095 -78.7778 -33.017
-59.0851 -78.7917 -32.9671
-58.075 -78.8136 -32.9396
-57.0651 -78.8198 -32.9316
-56.055 -78.8485 -32.8863
-55.045 -78.8017 -32.8534
-54.0352 -78.7054 -32.8461
-53.0251 -78.7111 -32.8065
-52.015 -78.6847 -32.7968
-51.0051 -78.6436 -32.7533
-49.9952 -78.6898 -32.7327
-48.985 -78.7739 -32.7004
-47.9749 -78.7761 -32.6827
-46.9651 -78.6932 -32.6811
-45.9551 -78.6647 -32.644
-44.9451 -78.7139 -32.6068
-43.9351 -78.7629 -32.558
-42.925 -78.8621 -32.528
-41.9151 -78.778 -32.4897
-40.9051 -78.7401 -35.093
-39.895 -78.7606 -36.0199
-38.885 -78.7547 -35.1861
-37.8751 -78.7656 -38.9699
-36.865 -78.7974 -41.5065
-35.855 -78.8671 -51.739
-34.8451 -78.8297 -52.3718
-33.8351 -78.8533 -52.3567
-32.8251 -78.9178 -52.3856
-31.8151 -78.8636 -52.0877
-30.805 -78.8934 -51.0351
-29.795 -78.9493 -51.0031
-28.7852 -78.9128 -50.8701
-27.775 -78.92 -50.464
-26.765 -78.9343 -50.5405
-25.7551 -78.9635 -51.386
-24.7452 -78.9545 -52.2276
-23.7351 -78.8605 -51.9517
-22.7249 -78.8093 -50.7698
-21.7151 -78.8132 -49.9877
-20.7052 -78.8011 -50.1494
-19.6953 -78.8253 -50.7328
-18.6849 -78.8489 -50.9482
-17.675 -78.8561 -50.8753
-16.6651 -78.8621 -51.8842
-15.6551 -78.8335 -52.3384
-14.6451 -78.8174 -52.339
-13.635 -78.8272 -52.4273
-12.6251 -78.8423 -52.4067
-11.6151 -78.8523 -52.3672
-10.605 -78.8794 -52.3354
-9.59503 -78.8742 -52.3433
-8.58508 -78.8259 -52.28
-7.57513 -78.7969 -52.288
-6.56494 -78.7333 -52.3495
-5.55499 -78.7732 -52.3537
-4.54504 -78.825 -52.3901
-3.53522 -78.7891 -52.408
-2.52496 -78.7482 -52.3851
-1.51495 -78.7072 -52.3573
-0.505066 -78.6883 -52.3567
0.504822 -78.6796 -52.2475
1.51483 -78.6993 -52.1626
2.52509 -78.7025 -52.2342
3.53491 -78.6752 -52.3235
4.5448 -78.6177 -52.3474
5.55475 -78.5356 -52.367
6.56506 -78.5292 -52.3812
7.57495 -78.4807 -51.9909
8.58484 -78.5084 -51.6197
9.59497 -78.8151 -51.729
10.6049 -78.8986 -52.2315
11.615 -78.8486 -52.1965
12.6249 -78.8298 -52.1652
13.635 -78.8683 -52.1247
14.6449 -78.8444 -38.1606
15.6549 -79.006 -23.894
16.6649 -78.9322 -3.71119
17.675 -78.8811 1.66489
18.6849 -78.8771 7.66704
19.695 -78.881 15.6638
20.705 -78.8952 10.0077
21.7148 -78.8369 4.69854
22.7249 -78.8582 3.88605
23.735 -78.8027 6.32687
24.7449 -78.8265 2.50488
25.7548 -78.8161 9.7289
26.765 -78.8031 16.0201
27.775 -78.8355 6.28548
28.7849 -78.8711 8.2095
29.7949 -78.9325 16.0824
30.8049 -78.9303 6.27104
31.8149 -78.9056 2.53027
32.825 -78.8511 21.5423
33.8349 -78.7965 30.6783
34.845 -78.7178 15.9955
35.8549 -78.8068 1.05818
36.865 -78.8951 2.50504
37.8749 -78.9078 -5.74562
38.8849 -78.8511 -42.6223
39.895 -78.7811 -42.739
40.9049 -78.9144 -42.8356
41.9149 -79.1811 -43.029
42.9249 -78.4211 -42.939
43.9349 -78.7561 -42.944
44.9449 -78.8611 -42.949
45.955 -78.7391 -42.957
46.9649 -78.7672 -43.027
47.9749 -78.8386 -43.0552
48.9849 -78.8511 -43.0402
49.9949 -78.8955 -43.1134
51.0049 -78.9222 -43.1645
52.015 -78.8867 -43.1867
53.025 -78.8644 -43.2367
54.0349 -78.8524 -43.2527
55.0449 -78.8161 -43.3152
56.0549 -78.8749 -43.2677
57.0649 -78.9586 -43.2552
58.075 -78.884 -43.0861
59.085 -78.8896 -42.7875
60.095 -78.8933 -42.7467
61.1049 -78.8477 -42.7101
62.115 -78.9195 -42.2873
63.1249 -78.9586 -41.6215
64.135 -78.9398 -41.7152
65.1449 -78.8311 -41.7547
66.1549 -78.7949 -41.7677
67.1649 -78.9411 -41.8015
68.1749 -79.004 -41.5975
69.1849 -78.9011 -44.169
70.1949 -78.8625 -47.0647
71.205 -78.8491 -51.503
72.2149 -78.9551 -51.705
73.2249 -79.0436 -51.724
74.2349 -79.0436 -51.684
75.2449 -78.9678 -49.744
76.2549 -78.8486 -40.2277
77.265 -78.761 -24.8473
78.275 -78.6691 -22.995
79.2849 -78.7711 -23.0373
80.2949 -78.8477 -23.0506
81.3049 -78.7354 -23.0718
82.3149 -78.7036 -23.089
83.325 -78.7325 -23.1247
84.335 -78.7327 -23.1356
85.345 -78.6911 -23.1575
86.3549 -78.754 -23.169
87.365 -78.7044 -23.1906
88.3749 -78.7244 -23.1956
89.385 -78.9244 -23.2023
90.3949 -78.8961 -23.2173
91.4049 -78.8211 -23.2373
92.4149 -78.8944 -23.2423
93.4249 -78.8294 -23.274
94.4349 -78.6995 -23.2823
95.445 -78.8168 -23.2947
96.455 -78.934 -23.3061
-96.4551 -80.0702 -43.1426
-95.4451 -80.0451 -43.149
-94.4351 -79.8611 -42.9917
-93.425 -79.9271 -42.847
-92.4151 -79.9276 -42.8525
-91.405 -79.8588 -42.909
-90.3951 -79.8835 -43.0106
-89.385 -79.8152 -43.1548
-88.3751 -79.8151 -43.1416
-87.365 -79.8027 -43.139
-86.3551 -79.876 -43.1356
-85.345 -79.8661 -43.115
-84.3351 -79.7729 -41.0526
-83.325 -79.7811 -36.7107
-82.315 -79.8296 -37.756
-81.305 -79.8716 -39.9369
-80.295 -79.8486 -37.3323
-79.2851 -79.7672 -40.391
-78.2751 -79.6811 -51.6265
-77.2651 -79.5977 -52.1323
-76.2551 -79.8597 -49.6418
-75.2451 -79.9228 -44.9573
-74.235 -79.9989 -40.1378
-73.2249 -79.9617 -39.2733
-72.2151 -79.9089 -37.6573
-71.2051 -79.8901 -33.253
-70.1951 -79.9019 -33.239
-69.1851 -79.9642 -33.2236
-68.175 -80.027 -33.1798
-67.1651 -79.9538 -33.1371
-66.155 -79.9284 -33.1326
-65.1451 -79.9312 -33.109
-64.135 -79.8201 -33.045
-63.1251 -79.8303 -32.829
-62.115 -79.9003 -32.6106
-61.1051 -79.8519 -32.704
-60.095 -79.8284 -32.909
-59.0851 -79.8372 -32.953
-58.075 -79.9066 -32.9081
-57.0651 -79.9211 -32.8731
-56.055 -79.8574 -32.8626
-55.045 -79.8189 -32.8182
-54.0352 -79.8218 -32.7997
-53.0251 -79.8295 -32.7859
-52.015 -79.8348 -32.7552
-51.0051 -79.8334 -32.7254
-49.9952 -79.8536 -32.704
-48.985 -79.9249 -32.6646
-47.9749 -79.9323 -32.6248
-46.9651 -79.8636 -32.6052
-45.9551 -79.8455 -32.5727
-44.9451 -79.8892 -32.5415
-43.9351 -79.8911 -32.515
-42.925 -79.9258 -32.4896
-41.9151 -79.9064 -32.5019
-40.905 -79.9192 -32.534
-39.8951 -79.8832 -33.3463
-38.885 -79.879 -35.8059
-37.8751 -79.925 -38.9162
-36.865 -79.9427 -39.9931
-35.8551 -79.8771 -45.256
-34.845 -79.6793 -51.7635
-33.8351 -79.6702 -52.3617
-32.825 -79.6948 -52.3735
-31.8151 -79.6553 -52.4056
-30.805 -79.723 -52.139
-29.795 -79.7721 -51.783
-28.7852 -79.7122 -51.425
-27.7751 -79.7841 -51.706
-26.765 -79.894 -52.399
-25.7551 -79.8856 -52.4534
-24.7451 -79.8723 -52.4402
-23.735 -79.8511 -52.136
-22.725 -79.8661 -51.913
-21.7151 -79.8853 -51.5731
-20.7051 -79.8626 -50.7459
-19.6951 -80.027 -49.8007
-18.6849 -80.0606 -50.0569
-17.675 -80.0436 -49.9777
-16.6651 -80.025 -50.4212
-15.655 -79.954 -51.9754
-14.6451 -79.9966 -52.3562
-13.635 -79.9619 -52.3815
-12.6251 -79.9811 -52.3856
-11.615 -80.0111 -52.3699
-10.6051 -80.0293 -52.3508
-9.59503 -80.0581 -52.363
-8.58508 -80.034 -52.369
-7.57507 -80.0293 -52.374
-6.565 -80.0229 -52.3908
-5.55499 -80.0186 -52.3525
-4.54504 -80.0648 -52.3405
-3.53522 -80.0958 -52.3684
-2.52496 -80.0227 -52.359
-1.51495 -79.9882 -52.3509
-0.505066 -80.0087 -52.255
0.504761 -80.002 -52.0872
1.51483 -79.9973 -52.079
2.52515 -80.0085 -52.2571
3.53491 -80.0031 -52.3558
4.54486 -79.9738 -52.3771
5.55481 -79.9377 -52.4083
6.56506 -79.9151 -52.3046
7.57495 -79.9033 -51.9892
8.58484 -79.9342 -51.9386
9.59467 -79.9279 -52.0563
10.6049 -79.8191 -52.091
11.615 -79.8544 -51.9356
12.6249 -79.8444 -52.1323
13.635 -79.8145 -45.9623
14.6449 -79.7297 -32.3075
15.6549 -79.8011 -15.193
16.6649 -79.8695 3.72258
17.6749 -79.9094 11.2583
18.685 -79.9251 9.92504
19.695 -79.8882 18.9282
20.705 -79.9161 30.772
21.7148 -79.9651 23.425
22.7249 -79.9591 20.9724
23.735 -79.8873 10.3683
24.7449 -79.885 6.27827
25.7548 -79.9111 20.9077
26.7649 -79.864 14.9675
27.7751 -79.7804 -3.13742
28.7849 -79.8129 4.06013
29.7949 -79.8665 17.4129
30.8049 -79.8201 8.71705
31.8149 -79.8131 1.33604
32.825 -79.7788 13.7549
33.8349 -79.8493 17.971
34.845 -79.8522 24.4055
35.8549 -79.7602 17.4883
36.865 -79.8484 -2.9835
37.8749 -79.8836 -5.35396
38.8849 -79.8444 6.32771
39.895 -79.6111 -42.784
40.9049 -79.7411 -42.859
41.9149 -79.8577 -42.919
42.9249 -79.9344 -42.869
43.9349 -80.2311 -42.859
44.9449 -79.9578 -42.9156
45.955 -79.9578 -42.9156
46.9649 -79.7544 -42.9956
47.9749 -79.8353 -43.0518
48.9849 -79.9161 -43.1002
49.9949 -79.9236 -43.104
51.005 -79.8897 -43.1532
52.015 -79.8936 -43.214
53.025 -79.8786 -43.1165
54.0349 -79.8211 -43.2052
55.0449 -79.7798 -43.3477
56.0549 -79.8568 -42.9147
57.0649 -79.9361 -42.516
58.075 -79.8192 -42.41
59.085 -79.7869 -42.6775
60.095 -79.9248 -43.134
61.1049 -79.7933 -44.7778
62.115 -79.7922 -46.5334
63.1249 -79.9474 -43.8071
64.135 -79.9534 -41.7923
65.1449 -79.9122 -41.7978
66.155 -79.8851 -41.775
67.1649 -79.8778 -43.9012
68.1749 -79.8383 -45.8504
69.1849 -79.8854 -48.9332
70.1949 -79.8599 -50.5602
71.205 -79.8424 -51.6902
72.2149 -79.9891 -51.685
73.2249 -80.0786 -51.689
74.2349 -80.0491 -44.829
75.2449 -79.7437 -32.599
76.2549 -79.6273 -29.7215
77.265 -79.7268 -22.9918
78.275 -79.7589 -23.0167
79.2849 -79.791 -23.0645
80.2949 -79.7823 -23.0852
81.3049 -79.7449 -23.1227
82.3149 -79.7167 -23.1434
83.325 -79.7993 -23.1553
84.3349 -79.8151 -23.16
85.345 -79.7755 -23.1723
86.3549 -79.8267 -23.1823
87.365 -79.7611 -23.1956
88.3749 -79.78 -23.1967
89.385 -79.8861 -23.2165
90.3949 -79.8686 -23.2252
91.405 -79.8099 -23.2427
92.4149 -79.8711 -23.2577
93.425 -79.8889 -23.2756
94.4349 -79.8601 -23.288
95.445 -79.9591 -23.309
96.455 -80.0122 -23.3178
-96.455 -80.9177 -43.1578
-95.445 -80.8923 -43.169
-94.4351 -80.8212 -42.976
-93.425 -80.885 -43.0174
-92.4151 -80.873 -43.1581
-91.405 -80.8301 -43.13
-90.3951 -80.8822 -43.1267
-89.385 -80.8681 -43.135
-88.3751 -80.8039 -43.1299
-87.365 -80.8669 -43.1081
-86.3551 -80.9301 -43.109
-85.3451 -80.8511 -43.0918
-84.3351 -80.7591 -37.8856
-83.3251 -80.7411 -38.7662
-82.3151 -80.6728 -38.6531
-81.305 -80.7471 -38.467
-80.295 -80.8745 -45.804
-79.2851 -80.7644 -51.499
-78.2751 -80.7328 -51.9306
-77.2651 -80.6851 -52.353
-76.2551 -80.7361 -47.714
-75.2451 -80.8992 -43.9408
-74.235 -80.89 -37.9984
-73.2249 -80.8504 -35.305
-72.2151 -80.8099 -33.2745
-71.2051 -80.7067 -33.2678
-70.1951 -80.7692 -33.221
-69.1851 -80.7856 -33.1953
-68.175 -80.8174 -33.0699
-67.1651 -80.7332 -33.026
-66.155 -80.7294 -33.0931
-65.1451 -80.7647 -33.0582
-64.135 -80.6519 -32.9767
-63.1251 -80.6575 -32.6961
-62.115 -80.7557 -32.4597
-61.1051 -80.7875 -32.4753
-60.095 -80.7436 -32.7273
-59.0851 -80.7003 -32.7867
-58.075 -80.806 -32.7482
-57.0651 -80.8004 -32.7982
-56.055 -80.7673 -32.6943
-55.045 -80.8365 -32.5705
-54.0352 -80.7645 -32.6715
-53.0251 -80.8135 -32.722
-52.015 -80.8657 -32.7128
-51.0051 -80.7902 -32.6926
-49.9951 -80.8281 -32.649
-48.985 -80.9151 -32.627
-47.975 -80.9672 -32.599
-46.9651 -80.9811 -32.5375
-45.9551 -81.0092 -32.5033
-44.9451 -81.006 -32.4732
-43.9351 -80.9711 -32.4826
-42.925 -81.0071 -32.527
-41.9151 -80.9932 -32.5668
-40.905 -81.0102 -32.5981
-39.8951 -80.9853 -32.5781
-38.885 -80.8735 -34.8515
-37.8751 -80.9 -37.01
-36.865 -80.9819 -35.9856
-35.8551 -80.9822 -40.8356
-34.8451 -80.9689 -44.8923
-33.8351 -80.9511 -51.9118
-32.825 -80.8411 -52.3798
-31.8151 -80.7847 -52.3832
-30.805 -80.8211 -52.4054
-29.795 -80.8018 -52.2403
-28.7852 -80.7446 -51.9113
-27.7751 -80.754 -52.0318
-26.765 -80.818 -52.4905
-25.7551 -80.7967 -52.4558
-24.7452 -80.7618 -52.4254
-23.735 -80.7311 -52.3983
-22.7249 -80.6685 -52.3116
-21.7151 -80.7111 -50.5696
-20.7051 -80.7376 -50.3201
-19.6952 -80.7695 -50.1201
-18.685 -80.8112 -49.8412
-17.675 -80.7812 -51.4115
-16.6651 -80.7826 -52.0636
-15.655 -80.7426 -52.4097
-14.6451 -80.7386 -52.389
-13.635 -80.6976 -52.3804
-12.6251 -80.6672 -52.382
-11.615 -80.6744 -52.389
-10.6051 -80.7211 -52.3759
-9.59503 -80.7842 -52.3505
-8.58508 -80.7961 -52.3152
-7.57501 -80.8033 -52.3175
-6.56506 -80.8377 -52.3712
-5.55505 -80.8544 -52.3734
-4.54504 -80.8182 -52.3475
-3.5351 -80.7527 -52.3306
-2.52509 -80.7548 -52.314
-1.51508 -80.8024 -52.299
-0.505066 -80.9894 -52.284
0.505005 -81.0453 -52.0675
1.51495 -80.8822 -51.9123
2.52496 -80.7978 -51.994
3.53491 -80.8928 -52.3623
4.54492 -80.8625 -52.3561
5.55493 -80.8126 -52.3875
6.56494 -80.6927 -51.6473
7.57495 -81.1919 -49.6527
8.58484 -81.2134 -49.779
9.59497 -80.7744 -51.9434
10.6049 -80.7461 -52.198
11.615 -80.7961 -52.179
12.6249 -80.9111 -45.1502
13.635 -80.8911 -41.999
14.6449 -80.8144 -39.7456
15.6549 -80.7631 -44.831
16.6649 -80.7578 -21.5156
17.6749 -80.804 3.85818
18.6849 -80.9057 1.20741
19.695 -80.9347 9.1496
20.705 -80.8893 15.672
21.7149 -80.9011 13.3988
22.7249 -80.9775 17.4292
23.735 -80.9793 10.742
