657.509949 695.441650 15.345834
658.519775 695.409912 15.332273
659.530151 695.401428 15.334288
660.539978 695.366882 15.335386
661.549866 695.427673 15.329092
662.559998 695.457153 15.334287
663.569946 695.405762 15.307857
664.580017 695.378662 15.299999
665.589966 695.323608 15.295714
666.600037 695.354980 15.249285
667.610046 695.348511 15.241904
668.620056 695.338135 15.244546
669.629944 695.424988 15.390999
670.639954 695.366699 15.467775
671.649963 695.367310 18.999092
672.660034 695.412231 22.088461
673.670532 695.570007 26.129436
674.679810 695.578308 28.053537
675.690002 695.387085 41.557140
676.700012 695.512024 52.155998
677.710022 695.313965 52.459999
678.719971 695.296021 53.062000
679.729980 695.461670 53.055004
680.739990 695.445923 52.890003
681.750000 695.381958 52.542000
682.760010 695.445007 52.500000
683.770020 695.437988 52.181999
684.780029 695.395996 51.700001
685.789978 695.361938 51.707996
686.799988 695.247925 52.165997
687.809998 695.229980 52.546665
688.820007 695.250061 53.257996
689.830017 695.247559 54.325001
690.840027 695.425049 54.557503
691.849976 695.520020 54.817501
692.859985 695.372498 54.980003
693.869995 695.281921 55.128002
694.879944 695.354980 55.343334
695.890076 695.466614 55.513332
696.899963 695.322815 55.444283
697.909973 695.335999 55.332001
698.919983 695.559998 55.195000
699.929993 695.592529 54.972496
700.940002 695.550049 54.774998
701.950012 695.560059 54.559998
702.960022 695.467529 54.309998
510.049988 694.316956 38.639000
511.059998 694.346619 38.612225
512.070007 694.468567 38.571430
513.080017 694.390076 38.529999
514.090027 694.370056 38.498573
515.100037 694.394348 38.461430
516.109924 694.371643 38.423336
517.120056 694.366638 36.513332
518.129944 694.414246 35.445000
519.140076 694.484619 31.568462
520.149963 694.517822 24.707777
521.159973 694.466614 16.840000
522.169983 694.393799 14.921250
523.180054 694.330017 14.926000
524.190002 694.354553 14.919999
525.200073 694.440918 14.917274
526.210022 694.427979 14.912000
527.219910 694.358032 14.903000
528.230164 694.398926 14.905557
529.240173 694.384827 14.977039
530.250000 694.376404 15.104798
531.259827 694.388977 15.110731
532.269836 694.367920 15.089615
533.280212 694.355225 14.795217
534.289856 694.395203 14.786945
535.299866 694.393921 14.776955
536.309875 694.368225 14.789545
537.320129 694.364685 14.788236
538.330017 694.339111 14.784348
539.339905 694.409973 14.809166
540.349854 694.392090 14.823938
541.360107 694.349731 14.850998
542.370056 694.387939 14.880399
543.379944 694.446960 14.899000
544.389893 694.416443 14.917308
545.400146 694.409912 14.947420
546.410095 694.442871 14.977421
547.419983 694.446045 15.066333
548.429871 694.434570 15.178213
549.440063 694.531006 15.417500
550.450073 694.534729 15.333684
551.460022 694.367798 15.104645
552.469788 694.357971 15.143449
553.480225 694.373413 15.130689
554.490173 694.362427 15.115864
555.500000 694.356689 15.121001
556.509827 694.325806 15.122582
557.519775 694.320557 15.120324
558.530212 694.332642 15.123999
559.539978 694.351318 15.164997
560.549927 694.367493 15.132813
561.559875 694.259094 15.071251
562.570068 694.283508 16.502312
563.580017 694.346924 21.376425
564.589905 694.420410 23.328348
565.600159 694.445923 23.563025
566.609924 694.404236 39.014286
567.620056 694.394531 38.917271
568.629944 694.398682 38.894669
569.640076 694.455322 37.280003
570.650146 694.369568 27.921154
571.660095 694.409363 22.850473
572.669983 694.358276 20.892496
573.679871 694.286621 21.981428
574.690125 694.416260 18.737143
575.699951 694.355164 16.387775
576.710083 694.257751 17.462812
577.719849 694.182373 17.504616
578.729980 694.413574 15.748236
579.740173 694.465454 16.226315
580.750000 694.462097 15.933422
581.759827 694.439697 15.053844
582.769897 694.492615 14.982174
583.780151 694.470337 15.021002
584.789795 694.471130 15.066112
585.799988 694.468445 15.102423
586.809875 694.455750 15.117141
587.820068 694.405518 15.144002
588.830017 694.378357 15.153667
589.839966 694.370483 15.152000
590.849915 694.442749 15.164210
591.860107 694.438538 15.167585
592.870056 694.423950 15.149500
593.879944 694.410034 15.121667
594.889893 694.385925 15.117600
595.900024 694.387939 15.092666
596.910034 694.393066 15.146875
597.919983 694.330017 15.516539
598.929932 694.208313 15.758889
599.940002 694.242859 15.507144
600.950073 694.263794 15.369231
601.960022 694.057495 15.045002
602.969971 694.090027 15.070003
603.979980 694.036987 15.110001
604.990051 693.960022 15.076364
606.000000 694.089539 21.281054
607.010620 694.359863 33.995564
608.019653 694.400635 35.265965
609.030029 694.627747 42.965553
610.039978 694.378540 51.024284
611.049988 694.292847 51.007145
612.059998 694.363342 50.963333
613.070007 694.339966 50.921429
614.080017 694.238586 50.961430
615.090027 694.171997 51.040001
616.099976 694.194031 51.064003
617.109985 694.314026 51.061996
618.119995 694.454956 53.007500
619.130005 694.559937 55.845001
620.140015 694.477539 56.724998
621.150024 694.400024 56.770000
622.159973 694.424011 56.792000
623.169983 694.332520 56.830002
624.179993 694.388000 56.896004
625.190002 694.396667 56.886669
626.200012 694.400024 56.187145
627.210022 694.364258 55.452854
628.220032 694.265686 54.090000
629.229980 694.204895 52.571671
630.239990 694.339966 51.132500
631.250000 694.437988 51.148003
632.260010 694.356689 51.143337
633.270020 694.401428 51.168571
634.279968 694.432922 51.197144
635.289978 694.455688 51.238567
636.299988 694.427124 51.261425
637.309998 694.270020 51.268330
638.319946 694.299011 43.834999
639.330017 694.320862 38.720909
640.340027 694.307983 31.368000
641.349976 694.260010 15.360001
642.359985 694.287964 15.324000
643.370056 694.325745 16.867144
644.379944 694.349976 16.862858
645.390076 694.474915 15.331666
646.399963 694.459961 15.389999
647.409973 694.433289 15.310000
648.419983 694.370056 15.206666
649.429993 694.284058 15.204000
650.440002 694.273987 15.224001
651.450073 694.360901 15.225454
652.460022 694.372009 15.230000
653.469910 694.310059 15.245000
654.479980 694.346680 15.255833
655.489990 694.502441 15.302500
656.500000 694.548035 15.297999
657.510010 694.607483 15.337500
658.519958 694.487183 15.348571
659.530090 694.426331 15.360001
660.539978 694.385010 15.371667
661.549927 694.386658 15.349523
662.559998 694.359985 15.337857
663.569946 694.325867 15.329999
664.580017 694.367188 15.325001
665.589966 694.331909 15.330909
666.600037 694.310852 15.314167
667.610046 694.328918 15.294737
668.620056 694.367249 15.302728
669.629944 694.415771 15.429168
670.639954 694.395508 15.476110
671.649963 694.429077 18.984547
672.660034 694.419983 21.321428
673.669983 694.403687 22.687271
674.679810 694.382996 35.981865
675.690552 694.268921 33.969585
676.699707 694.172363 30.563334
677.710022 694.299988 51.783997
678.719971 694.211670 52.010006
679.729980 694.212036 51.865997
680.739990 694.372498 52.257500
681.750000 694.403320 53.016666
682.760010 694.417969 52.517998
683.770020 694.395020 52.404999
684.780029 694.296692 52.183334
685.789978 694.430054 51.782501
686.799988 694.302551 51.797501
687.809998 694.147522 52.332500
688.820007 694.276001 53.170002
689.830017 694.299988 53.766666
690.840027 694.388367 54.263336
691.849976 694.552002 54.487999
692.859985 694.567444 54.772503
693.869995 694.332520 54.967503
694.880005 694.331970 55.167999
695.890015 694.492493 55.415001
696.900024 694.409973 55.287498
697.909973 694.366028 55.004005
698.919983 694.520020 54.868332
699.929993 694.531677 54.678329
700.940002 694.493347 54.465000
701.950012 694.490051 54.268337
702.960022 694.419983 54.031666
510.049988 693.657959 38.607998
511.060028 693.649963 38.551426
512.069946 693.661011 38.540997
513.080017 693.620972 38.497002
514.089966 693.544006 38.430000
515.100037 693.515015 38.392998
516.109924 693.430054 38.372997
517.120056 693.293335 38.332222
518.129944 693.365967 37.780998
519.140076 693.266479 35.735714
520.149963 693.318481 30.735382
521.160034 693.510010 23.446363
522.169983 693.408997 17.031000
523.179993 693.353333 14.927776
524.190002 693.326233 14.928750
525.200012 693.303711 14.945000
526.210022 693.270996 14.939000
527.219971 693.167786 14.913334
528.229980 693.266663 15.348888
529.240051 693.318970 15.742000
530.250000 693.305298 15.338946
531.259827 693.308105 15.099678
532.269958 693.280518 15.007367
533.280151 693.289429 14.915294
534.289978 693.330994 14.886207
535.299927 693.275513 14.832500
536.309875 693.276184 14.809047
537.320129 693.298950 14.814192
538.330017 693.231628 14.807895
539.339966 693.314209 14.821580
540.349854 693.352844 14.833437
541.360107 693.348694 14.838484
542.370056 693.345703 14.853998
543.379944 693.387878 14.891578
544.389954 693.398376 14.910417
545.400146 693.405212 14.956667
546.410095 693.407593 15.087667
547.419983 693.421692 15.101035
548.429871 693.425415 15.173215
549.440125 693.445007 15.407727
550.450073 693.487976 15.417143
551.460022 693.399475 15.275909
552.469788 693.399109 15.189231
553.480164 693.427429 15.167501
554.490173 693.406921 15.128966
555.500000 693.349731 15.126000
556.509827 693.334229 15.108666
557.519775 693.339966 15.113104
558.530212 693.335815 15.123215
559.539978 693.397705 15.124484
560.549866 693.435303 15.170741
561.559814 693.360779 15.240769
562.570068 693.362122 15.328748
563.580017 693.456116 18.495651
564.589905 693.410706 21.654076
565.600464 693.507568 23.788841
566.609619 693.429749 25.733463
567.620056 693.038940 33.737694
568.629944 693.182800 38.523567
569.640015 693.265808 36.201572
570.650146 693.364868 29.381607
571.660095 693.386475 25.489710
572.670410 693.446106 23.835526
573.679871 693.518250 21.086552
574.690002 693.312683 15.520666
575.700073 693.287903 16.324827
576.710083 693.278381 17.330938
577.719849 693.294556 17.816502
578.729980 693.333679 16.487499
579.740173 693.317261 15.738847
580.750000 693.266296 15.415185
581.759827 693.271545 15.136799
582.769897 693.313538 15.031739
583.780151 693.309998 15.081724
584.789917 693.324463 15.115756
585.799927 693.356873 15.130999
586.809875 693.380615 15.135791
587.820068 693.359070 15.154762
588.830017 693.358337 15.164062
589.839905 693.366394 15.164090
590.849854 693.413635 15.157272
591.860046 693.403809 15.155312
592.870056 693.386047 15.140000
593.879944 693.431213 15.110002
594.889954 693.452148 15.118181
595.900146 693.479492 15.088332
596.910095 693.457947 15.124401
597.919983 693.467041 15.249668
598.929993 693.534607 15.387332
599.940002 693.608765 15.200000
600.950012 693.622559 15.031251
601.960022 693.661438 15.104285
602.969971 693.673706 15.098750
603.979980 693.582031 22.514004
604.989990 693.151978 45.450001
606.000000 693.288452 38.426640
607.010620 693.320801 38.325134
608.020020 693.522461 43.052494
609.030029 693.351746 51.005001
610.039978 693.300049 51.016666
611.049988 693.280090 50.986000
612.059998 693.414917 50.957504
613.070007 693.390015 50.947998
614.080017 693.264038 50.922001
615.090027 693.270020 50.993999
616.100037 693.305725 51.060005
617.109924 693.301697 51.378338
618.120056 693.451660 53.763332
619.129944 693.506287 54.717499
620.140076 693.432800 55.607143
621.149963 693.414246 56.735714
622.159973 693.417114 56.794285
623.169983 693.344971 56.824997
624.179993 693.367126 56.838573
625.190002 693.289978 56.862858
626.200012 693.228516 56.480000
627.210022 693.254944 55.849995
628.219971 693.258362 53.166668
629.229980 693.248596 51.987148
630.239990 693.366699 51.413334
631.250000 693.434265 51.104286
632.260071 693.285767 51.138569
633.270020 693.245667 51.181427
634.280029 693.228760 51.177498
635.289978 693.293396 51.183331
636.299988 693.441956 51.290001
637.309998 693.247437 51.260002
638.320007 693.096008 51.296001
639.330017 693.302185 42.716667
640.339966 693.334961 38.465832
641.350037 693.205933 34.165001
642.359985 693.091980 25.170000
643.369995 692.969971 15.365000
644.380005 693.207520 15.340000
645.390076 693.323303 15.316667
646.399963 693.387085 15.291429
647.409973 693.449951 15.281666
648.419983 693.414978 15.230000
649.429993 693.214966 15.197500
650.440002 693.217529 15.215000
651.450073 693.361938 15.172000
652.460022 693.370056 15.180001
653.469971 693.451233 15.230000
654.479980 693.496338 15.249999
655.489990 693.476624 15.285001
656.500000 693.448303 15.315000
657.510010 693.391663 15.351666
658.519958 693.426147 15.367692
659.530090 693.433289 15.370000
660.539978 693.349915 15.385833
661.549927 693.360046 15.383681
662.559998 693.342773 15.378181
663.569946 693.376648 15.360001
664.580017 693.407410 15.345499
665.589966 693.376221 15.344615
666.600037 693.330811 15.358333
667.610046 693.348938 15.329444
668.620056 693.337463 15.325833
669.629944 693.336060 15.435385
670.639954 693.355591 15.485499
671.649963 693.324158 15.522499
672.660034 693.358154 15.945456
673.669983 693.385010 19.408182
674.679932 693.363281 22.606112
675.690125 693.386963 24.305769
676.699646 693.195129 33.724312
677.710327 693.068115 40.067371
678.719971 693.105042 51.602501
679.729980 693.126648 51.623333
680.739990 693.428040 52.202003
681.750000 693.456604 52.578339
682.760010 693.421997 52.785999
683.770020 693.418274 52.398331
684.780029 693.317993 52.464001
685.789978 693.386658 52.151669
686.799988 693.313293 51.798336
687.809998 693.184998 51.835003
688.820007 693.244019 52.264000
689.830017 693.302490 53.025002
690.840027 693.462524 53.730003
691.849976 693.599976 54.372002
692.859924 693.531677 54.514999
693.870056 693.356689 54.699997
694.879944 693.328308 54.930004
695.890076 693.445007 55.095001
696.899963 693.366638 55.063335
697.909973 693.236633 54.931667
698.919983 693.329956 54.678570
699.930054 693.278748 54.402504
700.940002 693.251648 54.149998
701.950012 693.268311 53.711666
702.960022 693.216614 52.829998
510.049988 692.535461 38.567276
511.060028 692.470886 38.527496
512.069946 692.459229 38.480766
513.080017 692.474609 38.436924
514.089966 692.449158 38.413639
515.100037 692.390015 38.372997
516.109924 692.290955 38.334999
517.120056 692.245972 38.279999
518.129944 692.296997 38.247002
519.140076 692.219971 38.212502
520.149963 692.259949 34.908001
521.160034 692.415466 28.876362
522.169983 692.326660 22.405832
523.180054 692.287231 18.833637
524.190002 692.341187 14.942500
525.200012 692.323669 14.952499
526.210022 692.292175 14.928889
527.219971 692.246643 14.918889
528.229980 692.299927 15.177141
529.239990 692.398682 15.832500
530.250000 692.419495 15.581500
531.259827 692.367737 15.194444
532.270020 692.319946 15.080000
533.280151 692.408020 15.164000
534.289978 692.383850 14.956519
535.299927 692.337891 14.867143
536.309998 692.268860 14.849413
537.320068 692.295776 14.842305
538.330017 692.294678 14.823334
539.339966 692.325317 14.841334
540.349915 692.344177 14.842083
541.360107 692.307617 14.846154
542.370056 692.296814 14.851364
543.379944 692.382507 14.844999
544.389954 692.353333 14.887502
545.400146 692.342896 14.925864
546.410095 692.346619 15.129230
547.419983 692.327026 15.251483
548.429932 692.351868 15.183079
549.440063 692.375977 15.212999
550.450073 692.325500 15.310557
551.460022 692.320374 15.322802
552.469788 692.333130 15.255172
553.480225 692.322144 15.144482
554.490173 692.317078 15.157036
555.500000 692.288025 15.179584
556.509827 692.293640 15.117775
557.519836 692.316162 15.115554
558.530212 692.322327 15.128000
559.539978 692.385071 15.126429
560.549866 692.413147 15.127143
561.559814 692.381470 15.174998
562.570129 692.370667 15.238998
563.580017 692.328735 15.321923
564.589966 692.359009 20.865002
565.599854 692.397949 24.500801
566.609558 692.367615 26.989351
567.620178 692.318420 28.291292
568.629944 692.091858 31.560871
569.640076 692.353149 30.509373
570.649902 692.285706 27.572393
571.660095 692.332886 25.229757
572.669983 692.450256 18.602423
573.680054 692.366150 15.064615
574.690002 692.349243 15.249230
575.700073 692.318298 16.002415
576.710144 692.372681 16.272650
577.719849 692.412720 16.315556
578.729980 692.312195 15.853078
579.740173 692.311157 15.336403
580.750000 692.268921 15.149231
581.759888 692.224976 15.050000
582.770020 692.215637 15.080626
583.780151 692.261841 15.122383
584.789978 692.275024 15.145769
585.799866 692.281555 15.158147
586.809875 692.256653 15.164285
587.820068 692.219116 15.156818
588.830017 692.248657 15.162904
589.839905 692.234985 15.166363
590.849854 692.247253 15.164547
591.860168 692.300964 15.145358
592.870056 692.274231 15.113159
593.879944 692.313232 15.114093
594.889893 692.350342 15.140669
595.900085 692.337524 15.112501
596.910034 692.318359 15.266666
597.919983 692.386292 15.292631
598.930054 692.516968 15.052308
599.940002 692.471375 15.015717
600.950073 692.437805 15.077144
601.960022 692.461670 15.096667
602.969849 692.459229 17.913845
603.979980 692.437622 25.971766
604.989807 692.275879 38.081318
606.000000 692.287659 37.466934
607.009827 692.343872 35.493408
608.020020 692.358032 51.053997
609.030029 692.457520 51.022499
610.039978 692.373352 51.001663
611.049988 692.359985 50.962856
612.059998 692.456604 50.913334
613.070007 692.415588 50.935711
614.080017 692.311401 50.921429
615.090027 692.211670 50.891663
616.099976 692.200012 51.292004
617.109924 692.294983 52.035000
618.120056 692.379944 53.033337
619.130005 692.520020 54.837502
620.140015 692.386047 54.926003
621.149963 692.324280 56.158573
622.159973 692.282837 56.892860
623.169983 692.260010 56.743999
624.179993 692.395996 56.804005
625.190002 692.306030 56.823997
626.200012 692.160034 56.970001
627.210022 692.288757 54.594997
628.219910 692.268066 52.875000
629.229980 692.223938 51.758003
630.239990 692.539978 51.570004
631.250000 692.463989 51.098000
632.260010 692.271973 51.119999
633.270020 692.245972 51.142002
634.280029 692.309998 51.176003
635.289978 692.456055 51.187996
636.299988 692.472961 51.177143
637.309998 692.334290 51.195717
638.320007 692.251648 51.230000
639.330017 692.312927 50.162853
640.340027 692.333313 46.717777
641.350037 692.234985 39.992001
642.359924 692.106628 32.051670
643.369995 691.895020 15.425000
644.380005 692.186707 15.336667
645.390015 692.405029 15.312500
646.400024 692.417480 15.360001
647.409973 692.524963 15.318334
648.419983 692.504272 15.280000
649.429993 692.316711 15.231667
650.440002 692.351990 15.219999
651.450073 692.505981 15.216001
652.460022 692.429077 15.215455
653.469971 692.254944 15.244999
654.479980 692.318298 15.253334
655.489990 692.326050 15.282001
656.500000 692.420044 15.332500
657.510010 692.512573 15.370000
658.520020 692.524048 15.370000
659.530029 692.486633 15.383334
660.539978 692.323669 15.405456
661.549927 692.331055 15.397223
662.559998 692.343811 15.394616
663.569946 692.317627 15.380000
664.580017 692.355896 15.376842
665.589966 692.318359 15.381667
666.600037 692.294189 15.367500
667.609985 692.331238 15.357648
668.620056 692.261841 15.352728
669.629944 692.299133 15.360833
670.640015 692.330566 15.427059
671.649963 692.288879 15.498890
672.660034 692.348999 15.548001
673.669983 692.407654 16.761904
674.679932 692.447327 19.084999
675.690186 692.430908 21.459999
676.699524 692.544922 33.126957
677.710693 692.453552 33.093521
678.719910 692.147339 27.434814
679.729980 692.334961 52.035000
680.739990 692.357971 51.910004
681.750000 692.325012 52.154999
682.760010 692.347961 52.315998
683.770020 692.460022 52.802498
684.780029 692.397461 52.732498
685.789978 692.469971 52.117500
686.799988 692.543396 51.819996
687.809998 692.316711 51.826664
688.820007 692.314026 51.885998
689.830017 692.370056 52.263332
690.839905 692.129456 52.114399
691.849854 692.131958 52.308800
692.859924 692.284241 54.268574
693.870056 692.127075 54.410000
694.879944 692.203369 54.686665
695.890015 692.415955 54.908001
696.900024 692.337524 54.885002
697.909973 692.169983 54.595001
698.919983 692.290039 54.437500
699.929993 692.312500 54.259998
700.940002 692.275024 53.872498
701.950012 692.304993 52.985001
702.960266 692.194458 52.379383
510.049988 691.322998 38.495998
511.060028 691.230896 38.460911
512.069946 691.232483 38.412502
513.080017 691.203369 38.377499
514.089966 691.207520 38.342499
515.100037 691.221802 38.307274
516.109924 691.139038 38.278999
517.120056 691.147095 38.243999
518.129944 691.228882 38.210003
519.140076 691.299927 38.172497
520.149963 691.400818 36.386364
521.160034 691.362488 34.153332
522.169983 691.284424 31.183332
523.180054 691.242004 24.420000
524.190002 691.154541 18.226364
525.200073 691.227905 14.943998
526.210022 691.262146 14.936666
527.219971 691.247803 14.942224
528.229980 691.356079 15.326001
529.240051 691.468445 15.795834
530.250000 691.469116 15.673636
531.259888 691.338013 15.196667
532.270020 691.392639 15.162667
533.280151 691.492615 15.110000
534.289978 691.456055 14.980437
535.299927 691.491272 14.894666
536.309998 691.447327 14.860000
537.320068 691.423767 14.853332
538.330017 691.446838 14.841251
539.339966 691.405273 14.832353
540.349854 691.407288 14.838460
541.360046 691.377502 14.850833
542.370056 691.334778 14.864211
543.379944 691.404968 14.873123
544.389954 691.388000 14.895714
545.400146 691.356323 14.912800
546.410095 691.349915 14.989582
547.419983 691.266602 15.060000
548.429932 691.231567 15.018002
549.440063 691.286499 15.042501
550.450073 691.337097 15.196428
551.460022 691.393127 15.137500
552.469849 691.359436 15.067220
553.480103 691.248291 15.263479
554.490173 691.220032 15.314230
555.500000 691.241699 15.190415
556.509827 691.254272 15.154616
557.519775 691.268005 15.140002
558.530212 691.260376 15.121035
559.539978 691.283081 15.123704
560.549866 691.335938 15.139601
561.559814 691.294922 15.138463
562.570068 691.261841 15.233078
563.580017 691.264954 15.355834
564.589905 691.346985 16.055769
565.599854 691.385132 18.466944
566.609924 691.390076 22.582750
567.620178 691.390137 26.646627
568.629761 691.299866 28.290915
569.640442 691.234497 28.948360
570.649597 691.320435 26.315060
571.660095 691.407715 18.496452
572.669983 691.342590 15.122610
573.680054 691.320679 15.107144
574.690002 691.330750 15.223847
575.700073 691.321045 15.312222
576.710022 691.328918 15.557368
577.719849 691.331299 16.135334
578.730042 691.385559 15.875554
579.740173 691.401611 15.276153
580.750000 691.367004 15.059165
581.759888 691.357910 15.091578
582.770081 691.447327 15.112000
583.780151 691.469971 15.144501
584.789978 691.414062 15.169583
585.799927 691.379944 15.164287
586.809998 691.361633 15.157500
587.819946 691.344482 15.164545
588.830017 691.318848 15.163685
589.839966 691.254578 15.155384
590.850037 691.234924 15.127858
591.860107 691.329529 15.112609
592.870056 691.328796 15.199376
593.879944 691.231567 15.592999
594.889893 691.254089 15.736399
595.899963 691.252869 15.745712
596.910095 691.205688 15.640870
597.919983 691.219604 15.583479
598.930054 691.199219 15.039998
599.940002 691.154114 15.028333
600.950073 691.140015 15.069231
601.960022 691.129150 15.063334
602.969910 691.160828 21.242500
603.980347 691.144958 39.555069
604.989746 691.278870 40.591461
606.000000 691.473816 40.613235
607.009949 691.560791 47.947506
608.020020 691.411438 50.985714
609.030029 691.471680 50.973331
610.039978 691.325745 50.962856
611.049988 691.238586 50.948574
612.059998 691.318359 50.925003
613.070007 691.298523 50.885715
614.080017 691.258301 50.869999
615.090027 691.197510 51.687500
616.099976 691.179993 52.406666
617.109985 691.405029 52.285000
618.120056 691.486633 51.700001
619.129944 691.513367 52.628338
620.140076 691.365051 53.900005
621.149963 691.321411 54.124287
622.159973 691.333313 55.236664
623.169983 691.360046 56.707996
624.179993 691.445740 56.741425
625.190002 691.355652 56.554283
626.200012 691.260010 54.332500
627.210022 691.187439 52.323750
628.219971 691.149963 51.378330
629.229980 691.343994 51.986000
630.239990 691.580017 51.878338
631.250000 691.475708 51.324287
632.260071 691.344299 51.082855
633.270020 691.311401 51.114285
634.279968 691.342896 51.121426
635.289978 691.376709 51.121662
636.299988 691.337097 51.185711
637.309998 691.195740 51.218571
638.320007 691.202820 51.255711
639.330017 691.181458 51.267143
640.340027 691.086060 51.258003
641.350037 691.324280 43.598572
642.359924 691.355530 40.903332
643.370056 691.285645 40.752857
644.380005 691.237488 33.794998
645.390015 691.313293 15.346667
646.400024 691.398071 15.353999
647.409973 691.504028 15.358000
648.419983 691.417969 15.348000
649.429993 691.225037 15.325000
650.440002 691.218323 15.275001
651.450012 691.331726 15.253334
652.460022 691.253357 15.240001
653.469971 691.151672 15.250001
654.479980 691.289917 15.296000
655.489990 691.462463 15.327499
656.500000 691.530029 15.320000
657.510010 691.538330 15.343333
658.520020 691.476746 15.366666
659.530029 691.381653 15.380000
660.539978 691.458923 15.365557
661.549927 691.393372 15.382000
662.559998 691.263367 15.415833
663.569946 691.240906 15.426667
664.580017 691.322266 15.408888
665.589966 691.318176 15.410001
666.600037 691.344482 15.394444
667.609985 691.393372 15.384667
668.620056 691.328979 15.392000
669.629944 691.319092 15.378182
670.639954 691.366089 15.395555
671.649963 691.346680 15.446667
672.660034 691.295471 15.533636
673.669983 691.323303 15.533332
674.679993 691.431152 19.788889
675.690002 691.347107 21.041428
676.700073 691.302368 24.240770
677.710571 691.406311 41.779831
678.719421 691.282898 39.146500
679.730347 691.186340 38.829735
680.740112 691.250000 49.708336
681.750000 691.059082 51.707623
682.759827 691.088196 51.782730
683.769714 691.211060 51.955482
684.780090 691.354065 51.987171
685.789673 691.504333 52.096859
686.800049 691.192322 52.893333
687.809937 691.171265 52.818996
688.820129 691.179138 51.880440
689.830017 691.164795 51.887833
690.839905 691.369995 52.014481
691.849792 691.378967 52.167240
692.859985 691.125732 54.002003
693.869934 691.112854 54.070007
694.880249 691.265381 54.487782
695.890137 691.288513 54.516582
696.900208 691.195740 54.967274
697.910095 691.173340 54.930004
698.919983 691.293152 54.408680
699.929871 691.294128 54.378674
700.939880 691.423340 53.940464
701.949707 691.426331 53.824883
702.960083 691.348022 52.314796
510.049957 690.243408 38.450836
511.059998 690.252197 38.418892
512.070007 690.242859 38.378571
513.080017 690.162781 38.341431
514.090027 690.124329 38.284283
515.100037 690.209961 38.266670
516.109924 690.194458 38.214443
517.120056 690.178772 38.162498
518.129944 690.242432 38.151253
519.140076 690.421265 38.132500
520.149963 690.448608 38.092857
521.159973 690.369995 38.035713
522.169983 690.353394 34.237778
523.179993 690.377808 29.232225
524.190002 690.298950 25.448889
525.200012 690.236206 19.363750
526.210022 690.383728 14.942501
527.219971 690.277710 14.924443
528.229980 690.151855 15.349999
529.239990 690.226746 15.664444
530.250000 690.271423 15.318571
531.259949 690.344543 15.125455
532.270020 690.393921 15.463846
533.280151 690.395020 15.314445
534.289978 690.457336 15.085264
535.299927 690.437500 15.035834
536.309998 690.447632 14.889232
537.320007 690.447083 14.885240
538.330017 690.382141 14.868332
539.339966 690.332214 14.851111
540.349854 690.337219 14.847309
541.360107 690.348083 14.857780
542.370056 690.350464 14.865454
543.379944 690.348328 14.867778
544.390015 690.395447 14.890001
545.400146 690.367249 14.909598
546.410095 690.346558 14.972692
547.419983 690.313110 14.996819
548.429993 690.302429 14.955000
549.440063 690.368530 15.079500
550.450073 690.431152 15.212941
551.460022 690.408997 15.200998
552.469788 690.369080 15.190454
553.480103 690.346191 15.221428
554.490112 690.357300 15.190526
555.500000 690.392212 15.107780
556.509888 690.370483 15.148001
557.519958 690.311646 15.152106
558.530151 690.289429 15.134445
559.539978 690.325012 15.137001
560.549866 690.312927 15.129582
561.559875 690.266663 15.132084
562.570007 690.277161 15.138095
563.580017 690.308655 15.146817
564.589905 690.308716 15.155218
565.599915 690.310486 15.675000
566.610107 690.335693 19.766899
567.619690 690.339966 29.638002
568.629639 690.363098 30.652065
569.640381 690.380554 28.089243
570.650146 690.372681 19.876297
571.660034 690.318481 15.091998
572.669983 690.342590 15.090525
573.680054 690.354004 15.325999
574.690002 690.298279 15.948334
575.700073 690.333313 15.809047
576.710022 690.311279 15.706523
577.719849 690.262817 15.635555
578.730103 690.313049 15.193501
579.740173 690.303772 15.065769
580.750000 690.299194 15.104400
581.759827 690.330811 15.129169
582.769897 690.396179 15.154288
583.780212 690.421814 15.155910
584.789978 690.422791 15.171600
585.799866 690.457214 15.181201
586.809875 690.483948 15.159498
587.820068 690.485229 15.164287
588.830017 690.464844 15.154818
589.839966 690.503723 15.127368
590.849915 690.465637 15.120000
591.860107 690.416016 15.144802
592.870056 690.442322 15.208236
593.879944 690.465698 15.528572
594.889954 690.379517 15.903499
595.899963 690.286987 15.943847
596.909973 690.327515 15.432499
597.919983 690.481689 15.571666
598.929993 690.700012 15.094999
599.940002 690.580017 15.100000
600.950012 690.165039 31.545000
601.960022 690.096191 33.777504
602.970154 690.213440 33.173725
603.980347 690.341064 36.483181
604.990173 690.526306 40.573483
606.000000 690.451660 41.994999
607.010071 690.278625 50.997143
608.020020 690.307190 50.982857
609.030029 690.355042 50.943333
610.039978 690.290039 50.965000
611.049988 690.267944 50.967999
612.059998 690.420044 50.940002
613.070007 690.382019 50.935997
614.080017 690.356628 51.210003
615.090027 690.323303 51.674999
616.100037 690.391418 51.258572
617.109924 690.498535 50.974281
618.120056 690.463318 51.318333
619.129944 690.403320 51.581669
620.140076 690.208313 52.289997
621.149963 690.190002 53.751431
622.159973 690.293762 54.301250
623.169983 690.301453 55.258572
624.180054 690.286987 47.917999
625.190002 690.316650 46.173332
626.200012 690.302002 51.784004
627.210022 690.145996 51.276001
628.219971 690.237976 52.747997
629.229980 690.345703 53.051426
630.239929 690.362854 52.772854
631.250000 690.350037 51.692860
632.260071 690.250061 51.008572
633.270020 690.215698 51.068569
634.279968 690.245728 51.084290
635.289978 690.090881 51.110001
636.299866 690.040100 51.129543
637.309998 690.118591 51.180000
638.320007 690.260010 51.210003
639.330017 690.247986 51.230000
640.339905 690.043945 51.228256
641.349792 690.036255 50.742184
642.360046 690.191650 46.254448
643.370056 690.131042 47.396317
644.379944 689.952698 50.370388
645.390015 689.986267 47.584377
646.400024 690.216614 27.670000
647.409973 690.484985 15.410000
648.419983 690.340027 15.375000
649.429993 690.135986 15.326001
650.440002 690.202454 15.425000
651.450012 690.377441 15.437500
652.460022 690.450012 15.283333
653.469971 690.300049 15.259999
654.479980 690.398071 15.283999
655.489990 690.496582 15.291665
656.500000 690.474915 15.315000
657.510010 690.424988 15.328334
658.520020 690.363342 15.356668
659.530029 690.266663 15.388333
660.539978 690.326660 15.410000
661.549927 690.303284 15.431666
662.559998 690.238220 15.422729
663.569946 690.266968 15.425000
664.580017 690.348145 15.428125
665.589966 690.424988 15.424001
666.600037 690.452026 15.405001
667.609985 690.411194 15.412352
668.620056 690.359192 15.422501
669.629944 690.296631 15.392499
670.640015 690.303528 15.368234
671.649963 690.262756 15.365455
672.660034 690.230896 15.511817
673.669983 690.299988 15.535832
674.679993 690.279968 15.585001
675.690002 690.360046 19.403000
676.700012 690.473694 25.103750
677.710144 690.258057 43.382008
678.720032 690.390259 35.727898
679.730347 690.404297 37.620491
680.740173 690.287903 47.297058
681.750000 690.416687 51.710667
682.759827 690.407654 51.718666
683.769775 690.389954 51.814449
684.779785 690.357971 52.337078
685.789856 690.322632 52.829624
686.800110 690.401978 52.401249
687.809998 690.396545 52.341293
688.820068 690.306702 51.894764
689.830017 690.298096 51.908569
690.839905 690.334167 52.072636
691.849854 690.358887 52.194214
692.859924 690.380615 53.122726
693.869751 690.386230 53.224701
694.879944 690.348633 54.312088
695.889832 690.357788 54.338261
696.900146 690.380859 54.748402
697.910095 690.352783 54.720402
698.919983 690.379456 54.217274
699.929932 690.387207 54.054543
700.940186 690.463135 52.826801
701.950073 690.465149 52.820000
702.960022 690.355164 52.358238
510.050018 689.417053 38.442860
511.060028 689.350037 38.340000
512.070007 689.390015 38.312225
513.080017 689.130554 38.294739
514.089966 689.147522 38.283001
515.100037 689.466309 38.231251
516.109924 689.415039 38.174999
517.120056 689.070007 38.169998
518.130249 689.105103 38.133400
519.139954 689.238770 38.097649
520.150146 689.202698 38.032665
521.160095 689.175903 38.025173
522.169983 689.166260 37.923443
523.179871 689.135742 36.906372
524.190002 689.388123 36.163643
525.199829 689.390808 34.745872
526.210022 689.417236 20.296364
527.219971 689.468750 14.936251
528.229980 689.287109 14.920000
529.239990 689.190002 14.943750
530.250000 689.298767 15.027500
531.260010 689.402893 15.280000
532.270020 689.445007 15.235001
533.280090 689.347046 15.034999
534.289978 689.303406 15.333335
535.299988 689.310059 15.268572
536.309998 689.309326 15.009999
537.320068 689.301697 15.032173
538.330017 689.271118 14.980001
539.339966 689.242493 14.889376
540.349915 689.247986 14.896191
541.360046 689.228027 14.892382
542.370056 689.230469 14.885453
543.379944 689.211121 14.880524
544.390076 689.235840 14.901764
545.400085 689.285461 14.913335
546.410095 689.295410 14.919585
547.419983 689.315369 14.927502
548.429932 689.335327 14.995386
549.440125 689.329529 15.068095
550.450073 689.328064 15.180667
551.460022 689.342590 15.170000
552.469788 689.390015 15.168261
553.480164 689.386292 15.320415
554.490173 689.380798 15.315199
555.500000 689.417908 15.112916
556.509827 689.417358 15.111156
557.519836 689.421936 15.108847
558.530212 689.419983 15.114166
559.539978 689.380432 15.128182
560.549866 689.358643 15.130456
561.559875 689.328979 15.122856
562.570068 689.362610 15.134782
563.580017 689.378723 15.143913
564.589905 689.369568 15.144093
565.599915 689.373413 15.212382
566.610046 689.402832 15.770000
567.620056 689.369202 17.701380
568.629944 689.310669 19.703793
569.639954 689.288757 18.191668
570.650024 689.297485 15.290001
571.660034 689.341125 15.161578
572.669983 689.339111 15.262999
573.680054 689.337646 15.896154
574.690002 689.290833 16.427500
575.700073 689.302795 15.792225
576.710022 689.282654 15.371052
577.719849 689.236023 15.106666
578.730042 689.243225 15.074443
579.740173 689.205811 15.104165
580.750000 689.216858 15.153183
581.759888 689.224548 15.173002
582.769958 689.230591 15.175791
583.780212 689.291382 15.188638
584.789978 689.316162 15.194446
585.799866 689.332947 15.190417
586.809875 689.317871 15.184211
587.820068 689.294556 15.167501
588.830017 689.339233 15.148463
589.839966 689.362366 15.127144
590.849915 689.373474 15.103500
591.860107 689.356384 15.123597
592.870056 689.329407 15.262631
593.879944 689.343567 15.741000
594.889954 689.393372 15.864285
595.899963 689.446228 15.507692
596.910034 689.419983 15.026363
597.919983 689.517517 15.048332
598.930054 689.610046 15.054615
599.940002 689.573853 19.760000
600.950073 689.534607 25.720001
601.960693 689.258301 39.164207
602.969482 689.284241 41.875004
603.980286 689.453735 50.372005
604.990173 689.439514 51.097164
606.000000 689.445374 51.047188
607.010010 689.289917 50.993999
608.020020 689.346008 50.967999
609.030029 689.454956 50.965000
610.039978 689.463989 50.944000
611.049988 689.348572 51.048573
612.059998 689.362854 51.024284
613.070007 689.348328 50.858334
614.080017 689.292847 50.920002
615.090027 689.205017 50.825001
616.099854 689.053772 50.839230
617.109863 689.027832 50.798573
618.120056 689.060059 50.957726
619.129944 689.059082 51.060478
620.139954 689.032043 51.067497
621.149963 689.075684 51.982853
622.160095 689.003906 51.838383
623.169983 689.054138 48.657932
624.179932 689.196411 41.663334
625.190308 689.183838 33.102741
626.199829 689.193359 39.770779
627.210510 689.181458 48.646763
628.219849 689.165100 52.450710
629.229980 689.317261 52.176357
630.239990 689.445984 52.467999
631.250000 689.220642 53.064240
632.260071 689.234253 52.082993
633.269714 689.272400 50.989998
634.279907 689.362671 51.068203
635.289551 689.372864 51.086468
636.300049 689.396179 51.125160
637.310181 689.349182 51.164612
638.320190 689.331543 51.187248
639.330017 689.372742 51.192375
640.339905 689.365723 51.195896
641.350037 689.390015 51.228062
642.359863 689.402893 51.277374
643.369690 689.421692 48.059284
644.379944 689.399048 48.824242
645.390076 689.361084 49.173508
646.400024 689.303284 27.720001
647.409973 689.376648 15.430000
648.419983 689.279968 15.407500
649.429993 689.309998 15.392500
650.440002 689.418030 15.356000
651.450012 689.421631 15.323333
652.460022 689.520020 15.301667
653.469971 689.424988 15.293334
654.479980 689.308350 15.300000
655.489990 689.331726 15.299999
656.500000 689.311707 15.305000
657.510010 689.338013 15.342000
658.520020 689.272034 15.352000
659.530029 689.114990 15.353333
660.539978 689.257996 15.412000
661.549988 689.418030 15.434000
662.559998 689.398010 15.422000
663.569946 689.383972 15.440000
664.580017 689.361145 15.457058
665.589966 689.402527 15.470000
666.600037 689.383667 15.446364
667.609985 689.318298 15.440001
668.620056 689.255859 15.451667
669.629944 689.236389 15.431818
670.640076 689.245728 15.402856
671.649963 689.214478 15.401818
672.660034 689.226318 15.463637
673.669983 689.293762 15.473749
674.679993 689.248352 15.833333
675.690002 689.380005 15.705714
676.700073 689.511841 19.059999
677.710022 689.471008 19.442999
678.719849 689.372314 21.378460
679.730347 689.396057 42.781647
680.739441 689.276794 38.476765
681.750000 689.173218 34.890770
682.759888 689.408752 51.869335
683.769836 689.307373 51.787365
684.779968 689.344238 51.890911
685.789978 689.366760 51.980000
686.799866 689.358093 51.874115
687.809814 689.344910 51.899445
688.820007 689.350586 52.048748
689.830017 689.335022 52.041248
690.839905 689.358154 51.973751
691.849915 689.380737 52.095631
692.860046 689.328735 52.252357
693.870056 689.330505 52.309418
694.879944 689.328857 53.955784
695.889893 689.359985 54.185265
696.900146 689.362915 54.504505
697.910095 689.341003 54.463688
698.919983 689.386841 53.789471
699.929932 689.379456 53.534996
700.940186 689.396606 52.282776
701.950134 689.394409 52.286110
702.960022 689.337830 52.251110
510.050110 688.255371 38.385120
511.060028 688.322693 38.353867
512.070190 688.338074 38.353176
513.080017 688.392761 38.287952
514.089905 688.398438 38.273750
515.099792 688.419128 38.213474
516.109924 688.418213 38.208439
517.119995 688.390259 38.130589
518.130310 688.368347 38.092857
519.139893 688.378113 38.040932
520.150146 688.407349 38.002354
521.160095 688.407593 37.988792
522.169983 688.371277 37.914371
523.179871 688.366150 37.483238
524.190186 688.346130 36.383072
525.199768 688.323181 36.840366
526.210205 688.326477 35.093498
527.219910 688.449036 20.831003
528.229980 688.456726 14.952223
529.240051 688.404053 14.996000
530.250000 688.437805 15.123333
531.260010 688.371277 15.242499
532.270020 688.320007 15.260000
533.280029 688.659973 15.216001
534.289978 688.395020 15.412499
535.299927 688.247986 15.445000
536.309998 688.336670 15.340000
537.319946 688.319397 15.424119
538.330017 688.309998 15.252308
539.339966 688.303772 14.927499
540.349915 688.264771 14.940477
541.360046 688.222900 14.941905
542.370056 688.261475 14.936501
543.379944 688.233093 14.931540
544.390076 688.189270 14.925715
545.400024 688.282593 14.923999
546.410095 688.285461 14.925910
547.419983 688.254944 14.936253
548.429932 688.260437 14.945001
549.440063 688.270630 14.944443
550.450073 688.305786 14.958571
551.460022 688.306335 15.057892
552.469788 688.309204 15.141999
553.480103 688.283875 15.133912
554.490173 688.250366 15.069564
555.500000 688.290833 15.085832
556.509827 688.289978 15.093041
557.519897 688.329590 15.113043
558.530212 688.348389 15.138749
559.539978 688.307129 15.137084
560.549866 688.307861 15.130000
561.559875 688.304932 15.126250
562.570068 688.304016 15.125417
563.580017 688.327881 15.133335
564.589905 688.340820 15.137307
565.599854 688.349243 15.208845
566.610046 688.373291 15.213750
567.620056 688.389160 16.176086
568.629944 688.379211 16.342693
569.639954 688.340820 15.917500
570.650024 688.302673 15.837893
571.660034 688.327637 15.162379
572.669983 688.334900 14.996999
573.680054 688.358032 15.284999
574.690002 688.434448 15.595555
575.700073 688.426270 15.420526
576.710022 688.454590 15.274546
577.719849 688.522339 15.038461
578.729980 688.446167 15.101539
579.740112 688.339966 15.136500
580.750000 688.366089 15.165554
581.759888 688.308838 15.184707
582.770081 688.242737 15.194000
583.780151 688.284424 15.198890
584.789978 688.288696 15.190909
585.799927 688.257507 15.183500
586.809937 688.236267 15.183125
587.820068 688.231506 15.156998
588.830017 688.243591 15.126801
589.839966 688.210510 15.110002
590.849915 688.193115 15.153158
591.860046 688.258545 15.162381
592.870056 688.270081 15.417999
593.879944 688.289978 15.377001
594.889954 688.279480 15.121428
595.899963 688.186401 15.045713
596.910034 688.166321 15.097274
597.919983 688.250854 15.132728
598.930054 688.313110 17.463078
599.940002 688.319275 22.359232
600.949707 688.360474 29.912241
601.960693 688.322266 39.867821
602.969849 688.235352 47.616711
603.980347 688.007935 51.273651
604.989441 688.057739 51.226898
606.000000 688.118103 51.016670
607.009827 688.369873 50.996346
608.019714 688.374023 50.994148
609.029968 688.207642 50.948231
610.039429 688.292053 50.938690
611.050232 688.356262 50.931168
612.060059 688.357361 50.887375
613.070190 688.362610 50.881901
614.080017 688.291016 50.856926
615.089905 688.266418 50.849739
616.099792 688.336060 50.798214
617.109863 688.392700 50.789764
618.119934 688.396240 50.774193
619.130188 688.302490 50.973682
620.140015 688.344177 51.001564
621.150269 688.512573 51.636093
622.160095 688.417358 50.257046
623.169983 688.291382 43.638885
624.179810 688.429688 43.093945
625.190247 688.455078 44.016613
626.199707 688.579346 39.666039
627.210632 688.463562 43.501720
628.220215 688.320862 47.365005
629.230286 688.362427 53.268501
630.240173 688.378723 53.274147
631.250000 688.377136 53.298805
632.259827 688.224182 52.754665
633.269775 688.126526 52.108459
634.280212 688.289978 51.011818
635.289856 688.303406 51.041031
636.299866 688.335510 51.100914
637.309937 688.354919 51.118061
638.320129 688.358643 51.130436
639.330017 688.292542 51.160416
640.339905 688.278015 51.168659
641.349792 688.329041 51.199673
642.360046 688.351379 51.230000
643.370056 688.343567 51.296818
644.380249 688.353394 49.982700
645.389893 688.348694 46.439999
646.400146 688.335205 48.040802
647.410095 688.331421 48.826820
648.419983 688.213318 15.780000
649.429993 688.326050 15.588000
650.440002 688.328308 15.375000
651.450012 688.264954 15.366668
652.460022 688.366699 15.338333
653.469971 688.268311 15.296666
654.479980 688.223999 15.270000
655.489990 688.377502 15.287500
656.500000 688.362549 15.312500
657.510010 688.310059 15.355000
658.520020 688.247559 15.375000
659.530029 688.122498 15.417500
660.539978 688.348022 15.444000
661.549988 688.418274 15.423333
662.559998 688.381653 15.433334
663.569946 688.383728 15.447272
664.580017 688.336243 15.458750
665.589966 688.334534 15.477274
666.600037 688.293945 15.476000
667.609924 688.279968 15.471428
668.620056 688.315002 15.468750
669.629944 688.381226 15.453750
670.640076 688.326355 15.453637
671.649963 688.343750 15.425000
672.660034 688.397278 15.401818
673.669983 688.393982 15.443001
674.680054 688.408020 15.527000
675.690002 688.349304 15.557857
676.700012 688.313354 15.591112
677.710022 688.323364 15.642222
678.719849 688.311584 15.662308
679.730103 688.398682 30.817333
680.740173 688.436462 29.248844
681.750000 688.242981 39.696674
682.759827 688.164307 48.017944
683.769897 688.342651 51.843334
684.780151 688.339600 51.825764
685.789978 688.353088 51.827503
686.799866 688.383179 51.901878
687.809875 688.336304 51.908123
688.820068 688.347290 51.992222
689.830017 688.331665 52.006115
690.839905 688.341248 51.993752
691.849915 688.397339 52.006004
692.859985 688.370667 52.072853
693.870056 688.412659 52.212669
694.879944 688.382751 53.080002
695.889893 688.353333 53.311111
696.900085 688.321777 54.196465
697.910095 688.285828 53.867050
698.919983 688.379028 52.648571
699.929932 688.378052 52.640003
700.940125 688.303711 52.253124
701.950134 688.299927 52.262501
702.960022 688.274414 52.287144
510.049896 687.330322 38.343334
511.059875 687.354248 38.292309
512.070129 687.370422 38.277859
513.080017 687.346619 38.220768
514.089905 687.353943 38.208462
515.099854 687.381226 38.156803
516.110107 687.364868 38.138000
517.120056 687.320007 38.063599
518.130127 687.283569 38.033504
519.139893 687.273254 37.984398
520.150146 687.290222 37.932003
521.160095 687.274475 37.920773
522.169983 687.264954 37.869228
523.179871 687.281433 37.852142
524.190186 687.283142 37.806534
525.200012 687.286987 37.013779
526.210022 687.312500 34.170422
527.219849 687.193726 28.915627
528.229980 687.130005 25.401255
529.240051 687.210022 15.014997
530.250000 687.270935 15.070001
531.259949 687.250977 15.126364
532.270020 687.241821 15.179090
533.280029 687.278870 15.123333
534.289978 687.243958 15.237000
535.299927 687.298157 15.399091
536.309998 687.295349 15.726001
537.320007 687.289551 15.573809
538.330017 687.322998 15.235384
539.339966 687.393127 14.949999
540.349976 687.352539 14.961499
541.359985 687.276978 14.953502
542.370056 687.337524 14.943501
543.379944 687.386414 14.942858
544.390076 687.313293 14.958666
545.400085 687.327026 14.957143
546.410034 687.346924 14.937498
547.419983 687.331543 14.936843
548.429993 687.340027 14.949501
549.440002 687.387634 14.956470
550.450073 687.461548 14.962309
551.460022 687.372925 14.982353
552.469849 687.278015 15.004501
553.480103 687.213318 15.026667
554.490112 687.219055 15.051905
555.500000 687.260986 15.082381
556.509827 687.290039 15.108184
557.519897 687.335388 15.134091
558.530212 687.289551 15.147729
559.539978 687.256226 15.141905
560.549927 687.261475 15.131903
561.559875 687.210571 15.127825
562.570068 687.188354 15.137393
563.580017 687.240051 15.138696
564.589905 687.274780 15.145653
565.599915 687.255920 15.143183
566.610046 687.283508 15.125217
567.620056 687.280457 15.456800
568.629944 687.263550 16.053213
569.639893 687.309631 16.916000
570.650146 687.277283 16.827333
571.660095 687.254944 15.594642
572.669983 687.283203 14.957599
573.680054 687.307678 15.243530
574.690002 687.474121 15.534706
575.700134 687.455688 15.200000
576.710022 687.429504 15.064583
577.719849 687.490051 15.098949
578.730042 687.425537 15.142222
579.740173 687.354553 15.169615
580.750000 687.399536 15.176156
581.759888 687.405945 15.171000
582.770020 687.362488 15.200001
583.780151 687.387390 15.204211
584.789978 687.371887 15.201366
585.799927 687.344788 15.197897
586.809937 687.357300 15.158000
587.820068 687.326782 15.133685
588.830017 687.344971 15.130000
589.840027 687.373718 15.327500
590.850037 687.378357 15.606667
591.859924 687.408630 15.285714
592.869995 687.396057 15.044001
593.879944 687.326660 15.063333
594.890015 687.065979 15.108000
595.900024 686.849976 15.124001
596.909973 686.846008 15.080000
597.919983 686.952820 19.432858
598.930054 687.068970 27.366999
599.940063 687.184937 33.591465
600.949585 687.344482 37.711411
601.960571 687.438599 42.432110
602.969788 687.380249 46.266926
603.980347 687.498535 49.152504
604.989685 687.462219 49.785793
606.000000 687.309570 51.005005
607.009827 687.295410 50.977921
608.019836 687.284790 50.969601
609.030212 687.299683 50.938843
610.039734 687.330078 50.931797
611.049927 687.301025 50.907501
612.059875 687.322449 50.851429
613.070068 687.347595 50.847137
614.080017 687.338196 50.829544
615.089905 687.289612 50.820900
616.099915 687.294006 50.756996
617.110046 687.327576 50.772999
618.120056 687.340454 50.753178
619.129944 687.350403 50.692219
620.139954 687.353027 50.675995
