85.3451 9.60394 -38.1523
86.355 9.56635 -41.3852
87.3651 9.51642 -46.8502
88.375 9.50562 -52.7473
89.3851 9.55731 -52.7256
90.3951 9.66492 -52.707
91.405 9.72394 -52.3515
92.415 9.65143 -47.1265
93.425 9.45557 -39.409
94.4351 9.26642 -33.884
95.4451 9.27393 -33.5515
96.4551 9.41229 -33.4356
-96.455 8.4151 46.7195
-95.4449 8.33289 54.929
-94.435 8.39258 54.9292
-93.4249 8.46558 54.9288
-92.4149 8.46558 54.9177
-91.4049 8.41882 54.971
-90.395 8.32526 54.3129
-89.3849 8.34015 52.6692
-88.375 8.39166 52.2357
-87.3649 8.48096 53.858
-86.355 8.42517 55.1123
-85.345 8.51337 55.0977
-84.335 8.58667 55.0633
-83.3249 8.64813 46.0135
-82.3149 8.70142 45.9935
-81.3049 8.68726 45.986
-80.2949 8.6889 45.986
-79.285 8.68646 45.9652
-78.275 8.62457 31.7775
-77.2648 8.591 31.7918
-76.2549 8.65527 47.3096
-75.2451 8.74811 55.061
-74.2349 8.7312 55.0041
-73.2248 8.70959 54.989
-72.215 8.76355 47.7744
-71.205 8.73029 47.791
-70.1951 8.56793 30.6139
-69.1848 8.66699 11.2477
-68.1749 8.80414 8.49066
-67.1649 8.86017 14.641
-66.155 8.86389 13.196
-65.145 8.8689 -29.9023
-64.1349 8.75891 -35.579
-63.125 8.66388 -38.779
-62.1149 8.56061 -39.5523
-61.1049 8.55292 -43.159
-60.095 8.60889 -45.4565
-59.085 8.3689 -53.299
-58.075 8.5 -40.0579
-57.0649 8.28223 -28.8556
-56.0549 8.46613 -28.889
-55.0449 8.59039 -28.9475
-54.035 8.50555 -28.999
-53.025 8.40057 -29.004
-52.015 8.46222 -29.034
-51.0049 8.5423 -29.0706
-49.9949 8.60895 -29.059
-48.9849 8.71643 -28.9865
-47.9749 8.62695 -28.947
-46.965 8.53491 -28.965
-45.955 8.60144 -28.9765
-44.9449 8.62695 -29.005
-43.9349 8.55896 -28.973
-42.9249 8.50269 -29.0152
-41.915 8.46887 -29.0253
-40.9049 8.50488 -28.981
-39.895 8.48529 -28.9708
-38.8849 8.49561 -28.9648
-37.875 8.67059 -28.9731
-36.8649 8.73706 -28.9644
-35.855 8.68787 -28.968
-34.8449 8.70892 -29.0226
-33.835 8.63812 -29.039
-32.8249 8.65613 -29.0553
-31.8149 8.79614 -29.0971
-30.8049 8.78638 -29.0806
-29.7949 8.77161 -29.029
-28.785 8.80347 -29.0553
-27.775 8.76984 -29.0971
-26.7648 8.78534 -29.1025
-25.7549 8.82062 -29.0956
-24.7449 8.83331 -29.0701
-23.7349 8.74487 -29.086
-22.7249 8.698 -29.0844
-21.715 8.73346 -28.999
-20.705 8.65894 -28.9762
-19.6949 8.59814 -29.019
-18.6849 8.7489 -28.8915
-17.6749 8.87439 -28.8345
-16.665 8.82092 -28.954
-15.6549 8.71771 -29.0627
-14.645 8.58289 -29.099
-13.6349 8.59894 -29.094
-12.6249 8.42145 -29.099
-11.6149 8.21295 -29.099
-10.6049 8.38892 -29.085
-9.59497 8.66638 -29.0965
-8.58496 8.4989 -29.084
-7.57495 8.52228 -29.0856
-6.56494 8.57465 -29.0975
-5.55493 8.58893 -29.1156
-4.54492 8.61462 -30.8718
-3.53503 8.5379 -36.302
-2.52496 8.69897 -39.9662
-1.51501 8.90039 -44.5104
-0.504944 8.75494 -53.127
0.505066 8.71143 -53.149
1.51508 8.63226 -53.189
2.52509 8.54688 -52.999
3.53503 8.60095 -53.053
4.54504 8.60895 -53.3056
5.55505 8.3056 -53.2956
6.565 8.33197 -53.292
7.57507 8.27887 -53.2918
8.58496 8.25342 -53.2818
9.59479 8.29163 -53.2728
10.605 8.64893 -53.2223
11.6151 8.46179 -53.2061
12.625 8.43726 -53.2123
13.6351 8.52148 -53.2115
14.6451 8.495 -53.169
15.655 8.44495 -53.151
16.665 8.48639 -53.1615
17.675 8.6889 -53.165
18.6851 8.57892 -53.153
19.6951 8.41095 -53.169
20.7051 8.40491 -53.179
21.715 8.44891 -53.1615
22.725 8.39093 -53.161
23.735 8.51495 -53.177
24.7451 8.7373 -53.199
25.7551 8.61322 -53.219
26.7651 8.5556 -53.244
27.7751 8.52289 -53.251
28.785 8.47888 -53.219
29.795 8.46143 -53.1415
30.8051 8.53491 -53.065
31.8151 8.63495 -53.045
32.8251 8.68896 -53.059
33.8351 8.58893 -53.079
34.845 8.73224 -41.879
35.855 8.67059 -33.1306
36.8651 8.58569 -33.2834
37.875 8.57892 -30.369
38.8851 8.70093 -19.609
39.8951 8.57892 -19.6615
40.905 8.56396 -19.714
41.915 8.57642 -19.739
42.925 8.40143 -19.7765
43.9351 8.50146 -19.799
44.9451 8.63898 -19.831
45.9551 8.68726 -19.874
46.965 8.62061 -19.6306
47.975 8.5639 -19.409
48.985 8.51227 -19.1106
49.9951 8.49146 -18.789
51.0051 8.54639 -18.7465
52.0151 8.52393 -18.729
53.0251 8.44641 -18.799
54.035 8.42389 -18.804
55.045 8.55719 -26.789
56.0551 8.63892 -30.8056
57.0651 8.7439 -43.064
58.0751 8.3689 -43.064
59.0851 8.29395 -43.054
60.095 8.52637 -43.1615
61.105 8.69232 -43.224
62.1151 8.70563 -43.2973
63.125 8.60565 -42.159
64.1351 8.51392 -42.1106
65.1451 8.54089 -41.929
66.155 8.63141 -40.8915
67.165 8.69891 -42.2115
68.175 8.7489 -42.5565
69.1851 8.6889 -42.434
70.1951 8.95892 -37.704
71.2051 8.73499 -37.741
72.215 8.53394 -37.8473
73.225 8.49054 -37.8756
74.235 8.48065 -37.8856
75.2451 8.42889 -37.9323
76.2551 8.53491 -37.927
77.2651 8.78394 -37.954
78.2751 8.77563 -37.989
79.285 8.48895 -38.0223
80.295 8.57642 -38.024
81.3051 8.71222 -37.6023
82.3151 8.71387 -37.839
83.3251 8.58142 -38.2215
84.3351 8.41644 -38.169
85.345 8.48297 -43.929
86.355 8.61896 -49.769
87.3651 8.52649 -52.744
88.3751 8.34393 -52.709
89.3851 8.44641 -52.709
90.3951 8.57294 -52.167
91.405 8.65643 -51.709
92.415 8.66895 -39.4056
93.425 8.49139 -33.6715
94.4351 8.34229 -33.3956
95.4451 8.33893 -31.869
96.4551 8.60095 -32.501
-96.4549 7.57892 37.3577
-95.4449 7.61725 37.376
-94.4349 7.71692 54.947
-93.4249 7.85388 54.9085
-92.4149 7.91638 54.9335
-91.4049 7.85266 55.031
-90.395 7.75787 53.4244
-89.3849 7.5929 52.069
-88.3749 7.43231 52.9644
-87.3649 7.51691 53.855
-86.355 7.58893 55.0698
-85.3449 7.59528 45.181
-84.335 7.56317 47.276
-83.3249 7.5697 55.0087
-82.3149 7.5556 55.016
-81.3049 7.53229 55.0102
-80.2949 7.48895 55.0074
-79.285 7.51801 55.0156
-78.275 7.49707 55.0147
-77.2649 7.40643 55.0352
-76.2549 7.37897 55.0401
-75.2451 7.40509 38.3287
-74.2349 7.43604 31.7346
-73.2249 7.4762 35.2456
-72.215 7.51526 41.4573
-71.205 7.33563 24.0216
-70.1951 7.47498 19.6482
-69.1849 7.57727 10.9994
-68.1749 7.49292 -11.195
-67.1649 7.51392 -53.3523
-66.155 7.58392 -47.4315
-65.145 7.66229 -37.6523
-64.1349 7.77222 -29.7356
-63.125 7.67755 -33.2232
-62.1149 7.659 -37.739
-61.105 7.57892 -40.3423
-60.095 7.56641 -36.634
-59.085 7.79895 -32.989
-58.075 7.41895 -28.729
-57.0649 7.41394 -28.929
-56.0549 7.35565 -29.0423
-55.0449 7.33691 -28.997
-54.035 7.32141 -29.044
-53.025 7.22559 -29.0423
-52.015 7.38226 -29.069
-51.0049 7.37695 -29.101
-49.9949 7.56891 -29.071
-48.9849 7.91888 -28.9815
-47.9749 7.77295 -28.975
-46.965 7.71393 -28.9723
-45.955 7.80896 -28.985
-44.9449 7.85645 -28.969
-43.9349 7.55389 -28.9656
-42.9249 7.42468 -28.9561
-41.9149 7.38037 -28.9832
-40.9049 7.37518 -28.9902
-39.895 7.35748 -28.9632
-38.8849 7.3139 -28.9727
-37.875 7.45337 -28.9745
-36.8649 7.58447 -28.9712
-35.855 7.48779 -29.0001
-34.8449 7.45386 -29.042
-33.835 7.46002 -29.0978
-32.8249 7.4259 -29.089
-31.8149 7.40668 -29.0682
-30.8049 7.37457 -29.0954
-29.7949 7.3681 -29.082
-28.785 7.41974 -29.0748
-27.775 7.43799 -29.0708
-26.7649 7.46252 -29.0371
-25.7549 7.51312 -29.069
-24.745 7.52728 -29.084
-23.7349 7.46509 -29.069
-22.7248 7.41968 -29.0074
-21.715 7.48077 -28.989
-20.705 7.47052 -28.9523
-19.695 7.4458 -28.8815
-18.6849 7.55359 -28.849
-17.6749 7.63391 -28.9511
-16.665 7.57898 -29.079
-15.655 7.62024 -29.1116
-14.645 7.677 -29.1343
-13.6349 7.68768 -29.135
-12.625 7.72211 -29.1359
-11.6149 7.74146 -29.1465
-10.6049 7.77094 -29.1503
-9.59491 7.79767 -29.1402
-8.58496 7.77576 -29.1221
-7.57495 7.75006 -29.1113
-6.56488 7.75897 -29.1207
-5.55487 7.81226 -29.1306
-4.54492 7.73486 -31.4146
-3.53503 7.75195 -33.8527
-2.52478 7.86224 -35.1819
-1.51483 7.90045 -36.1635
-0.504944 7.78967 -42.0105
0.505066 7.70557 -53.1956
1.51508 7.65692 -53.235
2.52509 7.57098 -53.247
3.53503 7.76642 -53.299
4.54504 7.66296 -51.187
5.55505 7.67297 -51.153
6.56506 7.65393 -53.2665
7.57507 7.57391 -53.2565
8.58508 7.65686 -53.225
9.59503 7.66895 -53.215
10.605 7.58392 -53.219
11.6151 7.34692 -53.171
12.625 7.39386 -53.1706
13.6351 7.50391 -53.1823
14.645 7.53729 -53.1773
15.655 7.56293 -53.193
16.665 7.6189 -53.184
17.675 7.77295 -53.175
18.6851 7.65887 -53.171
19.6951 7.60645 -53.164
20.7051 7.59894 -53.1665
21.715 7.5614 -53.1915
22.725 7.46692 -53.197
23.735 7.42896 -53.175
24.7451 7.58496 -53.157
25.7551 7.51697 -53.167
26.7651 7.44641 -53.174
27.7751 7.63898 -51.025
28.785 7.68097 -51.033
29.795 7.59644 -53.194
30.8051 7.56226 -53.1456
31.8151 7.53894 -52.9918
32.8251 7.50562 -52.8956
33.8351 7.54138 -52.999
34.845 7.85565 -41.419
35.855 7.73645 -35.589
36.8651 7.68396 -35.929
37.8751 7.72144 -27.5565
38.8851 7.76697 -19.319
39.895 7.70557 -19.684
40.905 7.66394 -19.734
41.915 7.67639 -19.7865
42.925 7.48895 -19.8265
43.9351 7.58392 -19.849
44.9451 7.62396 -19.889
45.9551 7.60895 -19.909
46.965 7.53143 -19.889
47.975 7.46893 -19.624
48.985 7.58887 -19.369
49.9951 7.51892 -19.013
51.0051 7.43457 -18.7632
52.0151 7.51093 -18.761
53.0251 7.65558 -18.709
54.035 7.62555 -21.5506
55.045 7.59393 -25.2223
56.0551 7.63892 -33.9956
57.0651 7.6889 -42.834
58.0751 7.61224 -43.219
59.0851 7.7514 -43.2415
60.095 7.64142 -43.234
61.105 7.64136 -43.264
62.1151 7.67639 -43.209
63.1251 7.53229 -43.2423
64.1351 7.43896 -41.7565
65.145 7.41058 -40.6856
66.155 7.4223 -40.694
67.165 7.55695 -40.789
68.175 7.65137 -33.114
69.1851 7.72559 -29.9656
70.1951 7.90894 -37.754
71.2051 7.57562 -37.8823
72.215 7.36646 -37.949
73.225 7.32141 -37.9215
74.235 7.32892 -37.9665
75.2451 7.26892 -37.994
76.2551 7.48291 -38.021
77.2651 7.6723 -38.074
78.2751 7.63293 -38.095
79.285 7.53638 -37.809
80.295 7.6889 -37.1215
81.3051 7.87891 -37.0815
82.3151 7.82397 -37.4965
83.3251 7.60498 -38.943
84.335 7.5675 -44.8661
85.3451 7.51178 -50.3904
86.355 7.49695 -52.589
87.3651 7.52643 -52.2265
88.3751 7.43219 -52.2923
89.3851 7.6189 -52.374
90.3951 7.59393 -52.349
91.405 7.54651 -37.5527
92.415 7.34894 -33.859
93.425 7.4939 -33.249
94.4351 7.63892 -32.639
95.4451 7.63892 -34.089
96.4551 7.58893 -34.109
-96.455 6.6228 55.2464
-95.4449 6.64832 55.4948
-94.435 6.65082 55.2398
-93.4249 6.6532 54.936
-92.415 6.67218 54.9894
-91.4049 6.65826 55.0642
-90.395 6.67151 54.6717
-89.3849 6.64526 53.9601
-88.375 6.48651 53.0394
-87.3649 6.41748 52.6682
-86.355 6.51428 53.4895
-85.345 6.6261 54.3496
-84.335 6.58893 55.0435
-83.325 6.5827 55.0323
-82.3149 6.55396 55.0135
-81.3049 6.54395 55.026
-80.2949 6.53149 55.0248
-79.285 6.49786 42.9877
-78.275 6.5589 43.0033
-77.265 6.52142 55.0323
-76.2549 6.5152 41.451
-75.2449 6.57782 30.9033
-74.2349 6.68762 14.3373
-73.2248 6.76123 4.95796
-72.215 6.63184 6.12533
-71.2051 6.62769 5.64645
-70.1949 6.73291 1.21371
-69.1849 6.61896 -31.337
-68.1749 6.36395 -53.334
-67.1649 6.30139 -53.3565
-66.155 6.23224 -53.379
-65.145 6.44562 -45.3956
-64.1349 6.52393 -41.399
-63.1249 6.46893 -30.079
-62.1149 6.21143 -29.929
-61.1049 6.22498 -29.805
-60.095 6.474 -30.4815
-59.085 6.60144 -29.904
-58.075 6.78894 -28.759
-57.0649 6.96143 -29.029
-56.0549 6.75891 -29.0315
-55.0449 6.50494 -28.989
-54.035 6.46698 -28.987
-53.025 6.65894 -29.014
-52.015 6.76892 -29.034
-51.0049 6.63293 -29.031
-49.9949 6.69232 -29.034
-48.9849 6.75562 -29.0023
-47.9749 6.7356 -28.984
-46.965 6.58038 -29.0247
-45.955 6.63055 -29.0206
-44.9449 6.68768 -29.0252
-43.9349 6.65454 -29.0567
-42.9249 6.60675 -29.0523
-41.915 6.58698 -29.05
-40.9049 6.56781 -29.0378
-39.895 6.58643 -29.0102
-38.8849 6.64319 -28.9847
-37.875 6.75604 -29.0104
-36.8649 6.77643 -29.024
-35.855 6.63751 -29.029
-34.845 6.63324 -29.0504
-33.835 6.64111 -29.099
-32.825 6.60016 -29.0877
-31.8149 6.58087 -29.039
-30.8049 6.4115 -29.039
-29.7949 6.36896 -28.9665
-28.785 6.61554 -28.9973
-27.775 6.6839 -29.0456
-26.765 6.8064 -29.069
-25.7549 6.95886 -29.043
-24.7449 6.91687 -28.985
-23.7349 6.69141 -28.9465
-22.7249 6.51147 -28.7765
-21.715 6.49695 -28.513
-20.705 6.3703 -28.5532
-19.6949 6.28107 -28.8201
-18.685 6.3219 -28.944
-17.6749 6.37006 -28.9945
-16.6649 6.29767 -29.1102
-15.6549 6.37561 -29.1179
-14.645 6.44653 -29.1131
-13.6349 6.43555 -29.1098
-12.625 6.47803 -29.1153
-11.6149 6.44397 -29.1196
-10.6049 6.40283 -29.1301
-9.59491 6.36237 -29.1313
-8.58496 6.33777 -29.1307
-7.57501 6.3468 -29.1195
-6.56482 6.35559 -29.079
-5.55481 6.38519 -32.3421
-4.54492 6.422 -34.5493
-3.53516 6.40942 -34.4399
-2.52496 6.41125 -36.4413
-1.51495 6.5329 -48.299
-0.504944 6.49298 -53.165
0.505066 6.53497 -53.179
1.51508 6.46643 -53.2715
2.52509 6.50098 -53.331
3.53503 6.68176 -51.8061
4.54504 6.60175 -50.949
5.55505 6.61182 -52.9211
6.56519 6.61169 -53.3228
7.57507 6.59778 -53.2862
8.58496 6.62207 -53.2745
9.59485 6.63763 -53.269
10.605 6.69391 -53.1915
11.6151 6.42291 -53.163
12.6251 6.33093 -53.169
13.6351 6.33142 -53.1665
14.6451 6.5249 -53.141
15.655 6.68884 -53.145
16.665 6.66284 -53.161
17.675 6.6618 -53.1475
18.6851 6.65228 -53.174
19.6951 6.6723 -53.1773
20.7051 6.56464 -53.1675
21.715 6.52289 -53.175
22.725 6.6214 -53.1465
23.735 6.52899 -53.1323
24.7451 6.61389 -53.144
25.7551 6.54138 -53.1415
26.7651 6.53644 -53.169
27.7751 6.72498 -53.173
28.785 6.76398 -53.1865
29.795 6.6922 -53.1823
30.8051 6.69891 -53.119
31.8151 6.55389 -53.104
32.8251 6.39893 -52.8015
33.8351 6.56488 -52.813
34.8451 6.6106 -53.034
35.855 6.51691 -53.023
36.8651 6.60492 -46.271
37.875 6.68671 -37.8823
38.8851 6.66254 -30.529
39.895 6.56018 -22.4415
40.905 6.58734 -19.794
41.915 6.58228 -19.8273
42.925 6.52893 -19.839
43.9351 6.73145 -19.859
44.9451 6.76892 -19.8615
45.9551 6.75647 -19.869
46.965 6.68146 -19.944
47.975 6.61646 -19.9665
48.985 6.76392 -19.6615
49.9951 6.61139 -19.3715
51.0051 6.37091 -18.985
52.0151 6.49298 -18.761
53.0251 6.53094 -17.263
54.035 6.38226 -16.2373
55.045 6.50897 -21.9912
56.0551 6.64392 -26.0377
57.0651 6.63892 -34.0523
58.0751 6.53394 -43.159
59.0851 6.79224 -43.2223
60.095 6.68396 -43.2215
61.105 6.69147 -43.244
62.1151 6.71893 -43.1865
63.1251 6.53888 -42.159
64.1351 6.34387 -40.099
65.1451 6.28894 -39.974
66.155 6.26892 -39.999
67.165 6.52899 -31.6123
68.175 6.46741 -25.2832
69.1851 6.58392 -22.424
70.1951 6.87225 -30.0256
71.2051 6.60394 -37.679
72.215 6.4256 -37.8423
73.225 6.45642 -37.8965
74.235 6.46893 -37.9065
75.2451 6.41638 -37.9365
76.2551 6.4256 -37.969
77.2651 6.6239 -38.0515
78.2751 6.60388 -38.039
79.285 6.4964 -38.1065
80.295 6.62726 -37.899
81.3051 6.74054 -37.4523
82.3151 6.68896 -37.789
83.3251 6.54181 -42.3875
84.3351 6.48065 -47.864
85.345 6.37146 -52.224
86.355 6.46094 -52.197
87.3651 6.57892 -52.593
88.3751 6.6723 -52.7223
89.385 6.6723 -40.759
90.3951 6.44495 -26.145
91.405 6.50885 -21.4206
92.415 6.57697 -23.367
93.425 6.38892 -27.449
94.4351 6.56897 -32.854
95.4451 6.77899 -33.669
96.4551 6.70398 -34.039
-96.455 5.3139 55.792
-95.4449 5.39142 47.0377
-94.435 5.40991 44.994
-93.4249 5.3822 55.0922
-92.4149 5.44769 54.9885
-91.4049 5.48645 55.0835
-90.395 5.46777 55.1188
-89.3849 5.34338 55.0933
-88.375 5.2467 55.0177
-87.3649 5.29114 54.9877
-86.355 5.42889 55.305
-85.3449 5.50433 55.4056
-84.335 5.56128 55.1326
-83.3249 5.61151 55.0135
-82.3149 5.60168 54.9965
-81.3049 5.60254 55.0201
-80.2949 5.59351 55.0201
-79.285 5.56305 55.036
-78.275 5.60437 55.0592
-77.2648 5.54749 31.7703
-76.2549 5.51355 26.0544
-75.2451 5.6167 47.201
-74.2349 5.6283 47.7277
-73.2248 5.55798 27.2895
-72.215 5.62518 17.0393
-71.2051 5.71417 17.0197
-70.1949 5.87347 15.7156
-69.1849 5.83392 -16.729
-68.1749 5.58142 -53.3415
-67.1649 5.71393 -53.394
-66.155 5.86292 -53.395
-65.145 5.89569 -53.379
-64.1349 5.63892 -29.499
-63.1249 5.63892 -29.499
-62.1149 5.58893 -29.629
-61.1049 5.58893 -29.909
-60.095 5.65894 -29.1523
-59.085 5.61096 -28.921
-58.075 5.65228 -29.1006
-57.0649 5.74561 -29.089
-56.0549 5.59393 -29.0923
-55.0449 5.41748 -29.0847
-54.035 5.3775 -29.0818
-53.025 5.48395 -29.099
-52.015 5.47321 -29.0804
-51.0049 5.46326 -29.0561
-49.9949 5.60492 -29.035
-48.9849 5.60394 -29.0165
-47.9749 5.59644 -29.014
-46.965 5.37488 -29.053
-45.955 5.32556 -29.0756
-44.9449 5.41785 -29.084
-43.935 5.40192 -29.055
-42.9249 5.36902 -29.057
-41.915 5.34601 -29.109
-40.9049 5.36292 -29.079
-39.895 5.41168 -28.9926
-38.8849 5.53607 -29.0047
-37.875 5.66803 -29.038
-36.8649 5.63684 -29.054
-35.855 5.57507 -29.0297
-34.8449 5.54993 -29.03
-33.835 5.56189 -29.096
-32.8249 5.62384 -29.1315
-31.8149 5.66815 -29.0898
-30.8049 5.63617 -29.0453
-29.7949 5.66077 -29.038
-28.785 5.68048 -29.0506
-27.775 5.67889 -29.0851
-26.7648 5.73456 -29.1247
-25.7549 5.80017 -29.0963
-24.7451 5.79431 -29.0296
-23.7349 5.73389 -29.0218
-22.7248 5.6925 -29.0297
-21.715 5.70203 -28.9674
-20.705 5.64166 -28.7953
-19.6949 5.58093 -28.875
-18.6849 5.69556 -29.0678
-17.6749 5.81226 -29.0834
-16.6649 5.72778 -29.1112
-15.6549 5.70142 -29.1077
-14.645 5.74188 -29.109
-13.6349 5.74188 -29.121
-12.625 5.84448 -29.1378
-11.6149 5.83466 -29.1318
-10.6049 5.71698 -29.089
-9.59497 5.66895 -29.101
-8.58496 5.53497 -29.125
-7.57495 5.54059 -29.1173
-6.56494 5.52167 -35.4699
-5.55487 5.54181 -39.2804
-4.54492 5.55023 -44.1602
-3.53497 5.56689 -53.093
-2.52496 5.68085 -53.111
-1.51495 5.69397 -53.149
-0.504944 5.58496 -53.141
0.505066 5.62097 -53.177
1.51508 5.59143 -53.319
2.52509 5.60089 -53.337
3.53503 5.65887 -53.301
4.54504 5.54285 -53.291
5.55505 5.67609 -53.2518
6.56506 5.62555 -53.234
7.57507 5.41058 -53.249
8.58502 5.23706 -53.2396
9.59503 5.29022 -53.2421
10.605 5.61487 -53.233
11.6151 5.54639 -53.199
12.6251 5.4364 -53.1965
13.6351 5.38892 -53.179
14.6451 5.56293 -53.141
15.655 5.72693 -53.129
16.665 5.62396 -53.154
17.675 5.54895 -53.155
18.6851 5.64893 -53.155
19.6951 5.69141 -53.174
20.7051 5.57892 -53.1865
21.715 5.5929 -53.175
22.725 5.62042 -53.1404
23.735 5.58173 -53.169
24.7451 5.52893 -53.1875
25.7551 5.52734 -53.159
26.7651 5.58893 -53.1715
27.7751 5.75092 -53.131
28.785 5.85291 -53.131
29.795 5.89893 -53.1723
30.8051 5.84644 -53.109
31.8151 5.71643 -52.7265
32.8251 5.4964 -52.8415
33.8351 5.53638 -53.094
34.845 5.47388 -52.964
35.855 5.33893 -53.0156
36.8651 5.52887 -41.439
37.8751 5.50397 -35.579
38.8851 5.59894 -32.4152
39.895 5.53223 -31.1445
40.905 5.42896 -26.335
41.915 5.50891 -19.8265
42.925 5.46692 -19.871
43.9351 5.62396 -19.9006
44.9451 5.63892 -19.934
45.9551 5.61224 -19.9673
46.965 5.54395 -20.0006
47.975 5.5769 -20.029
48.985 5.85138 -19.979
49.9951 5.56891 -20.115
51.0051 5.39691 -19.711
52.0151 5.38892 -17.5765
53.0251 5.28894 -16.2265
54.035 5.2464 -16.2115
55.045 5.38141 -16.219
56.0551 5.64227 -20.654
57.0651 5.59467 -23.8747
58.0751 5.4469 -26.949
59.0851 5.54224 -33.5123
60.095 5.63892 -41.1623
61.105 5.72894 -41.7115
62.1151 5.90558 -42.6756
63.1251 5.72223 -41.1623
64.1351 5.72644 -40.0315
65.1451 5.73895 -39.8923
66.155 5.71393 -27.114
67.165 5.67896 -14.669
68.175 5.38892 -20.6265
69.1851 5.54181 -21.3732
70.1951 5.6889 -21.349
71.2051 5.55493 -23.979
72.215 5.40887 -32.1315
73.225 5.4989 -38.039
74.235 5.4209 -38.021
75.2451 5.37494 -37.991
76.2551 5.48895 -38.059
77.2651 5.62225 -38.1723
78.2751 5.64148 -38.0965
79.285 5.62567 -38.1523
80.295 5.59894 -37.8523
81.3051 5.66644 -37.9365
82.3151 5.64093 -43.875
83.3251 5.51288 -49.615
84.3351 5.50391 -52.3415
85.345 5.49646 -52.104
86.3551 5.38892 -52.359
87.3651 5.37891 -52.079
88.3751 5.50562 -39.8923
89.3851 5.5589 -25.434
90.3951 5.48145 -16.7065
91.405 5.46094 -19.941
92.415 5.41602 -21.4275
93.425 5.32892 -23.541
94.4351 5.59894 -33.889
95.4451 5.8089 -33.5023
96.4551 5.62292 -32.971
-96.4549 4.62897 56.0455
-95.4449 4.73035 55.9096
-94.4349 4.83606 55.4196
-93.4249 4.85638 55.1085
-92.4149 4.91516 55.0198
-91.4049 4.89563 55.0966
-90.395 4.8764 55.076
-89.3849 4.81604 55.0596
-88.375 4.68732 55.0677
-87.3649 4.64142 55.946
-86.355 4.63147 56.5223
-85.3449 4.57892 55.8335
-84.335 4.5434 55.142
-83.3249 4.50433 55.0126
-82.3149 4.47223 55.0177
-81.3049 4.49292 55.041
-80.2949 4.46069 55.042
-79.285 4.33795 55.023
-78.275 4.422 38.2903
-77.2648 4.4325 31.7217
-76.2549 4.39832 31.7303
-75.2451 4.42957 26.073
-74.2349 4.41364 12.5016
-73.2248 4.56476 4.05074
-72.215 4.6322 1.49818
-71.205 4.58008 -16.9278
-70.1949 4.69556 -53.3423
-69.1849 4.58563 -53.3923
-68.1749 4.46387 -53.399
-67.1649 4.58722 -53.3873
-66.1549 4.77728 -53.3923
-65.145 4.91394 -53.354
-64.1349 4.62891 -53.349
-63.1249 4.62891 -53.349
-62.1149 4.66992 -35.2692
-61.1049 4.51392 -28.534
-60.095 4.62891 -28.759
-59.085 4.53894 -29.0365
-58.075 4.49396 -29.0815
-57.0649 4.66638 -29.0815
-56.0549 4.46643 -29.099
-55.0449 4.24396 -29.1056
-54.035 4.19299 -29.101
-53.025 4.33893 -29.094
-52.015 4.45142 -29.0365
-51.0049 4.57642 -29.009
-49.9949 4.81396 -29.044
-48.9849 4.81146 -29.054
-47.9749 4.80139 -29.024
-46.965 4.64893 -29.0165
-45.955 4.5849 -29.019
-44.9449 4.67688 -29.021
-43.9349 4.69647 -29.0765
-42.9249 4.58142 -29.094
-41.9149 4.47394 -29.0215
-40.905 4.48645 -28.9465
-39.895 4.33289 -29.025
-38.8849 4.45764 -29.044
-37.875 4.54694 -29.001
-36.8649 4.42896 -28.9817
-35.855 4.41095 -28.966
-34.8449 4.39587 -28.964
-33.835 4.31793 -29.02
-32.825 4.38226 -29.1023
-31.8149 4.44794 -29.052
-30.8049 4.40491 -29.002
-29.7949 4.38446 -29.009
-28.785 4.37592 -29.001
-27.775 4.31256 -29.039
-26.7649 4.3208 -29.0962
-25.7549 4.39307 -29.0665
-24.7451 4.44049 -28.9843
-23.7349 4.39642 -28.9456
-22.7249 4.29163 -29.0026
-21.715 4.36121 -29.0328
-20.705 4.37122 -29.0305
-19.695 4.38226 -29.0616
-18.6849 4.46649 -29.099
-17.6749 4.55817 -29.1128
-16.665 4.54431 -29.1097
-15.6549 4.54108 -29.1104
-14.645 4.56824 -29.1083
-13.6349 4.5777 -29.115
-12.625 4.63898 -29.1304
-11.6149 4.67963 -29.1304
-10.6049 4.69696 -29.1246
-9.59491 4.7019 -29.1237
-8.58496 4.66077 -29.1077
-7.57501 4.60052 -31.529
-6.56476 4.62122 -34.5701
-5.55481 4.69849 -35.0256
-4.54492 4.71887 -35.4082
-3.53497 4.63452 -41.3523
-2.52496 4.64093 -52.491
-1.51495 4.59094 -53.215
-0.504944 4.45172 -53.359
0.505066 4.54395 -53.4506
1.51508 4.6189 -53.3715
2.52509 4.60492 -53.305
3.53503 4.77661 -53.3345
4.54498 4.81244 -53.3431
5.55487 4.87488 -53.3105
6.56519 4.90692 -53.2679
7.57507 4.93439 -53.2474
8.58496 4.96332 -53.2465
9.59491 4.93018 -53.2434
10.605 4.53693 -53.229
11.6151 4.48389 -53.2173
12.625 4.48602 -53.1861
13.6351 4.50397 -53.204
14.6451 4.73895 -53.2123
15.655 4.78644 -53.1665
16.665 4.7514 -53.139
17.675 4.6189 -53.151
18.6851 4.71893 -53.163
19.6951 4.79895 -53.1615
20.7051 4.75488 -53.137
21.715 4.67694 -53.145
22.725 4.53088 -53.165
23.735 4.48694 -53.159
24.7451 4.43097 -53.137
25.7551 4.47559 -53.069
26.7651 4.52557 -52.9056
27.775 4.63739 -52.9947
28.785 4.71033 -53.1718
29.795 4.65894 -53.2056
30.8051 4.62744 -53.2904
31.8151 4.62384 -53.2906
32.8251 4.55139 -53.139
33.8351 4.58649 -53.064
34.845 4.58643 -52.959
35.855 4.52557 -52.979
36.8651 4.59387 -53.084
37.8751 4.54395 -53.039
38.8851 4.54889 -41.3623
39.895 4.61261 -29.9602
40.905 4.52997 -28.1034
41.915 4.46893 -23.9656
42.925 4.43396 -19.9065
43.9351 4.52887 -19.9065
44.9451 4.57391 -19.939
45.9551 4.5589 -19.984
46.965 4.47894 -19.999
47.975 4.46063 -20.449
48.985 4.64465 -20.7261
49.9951 4.58093 -20.767
51.0051 4.37689 -19.589
52.0151 4.37726 -18.1773
53.0251 4.33093 -16.987
54.035 4.35394 -16.2115
55.045 4.49139 -16.224
56.0551 4.59637 -16.209
57.0651 4.65228 -22.3006
58.0751 4.57605 -27.9261
59.0851 4.48645 -33.9365
60.095 4.83893 -40.494
61.105 4.70557 -39.919
62.1151 4.60291 -39.861
63.1251 4.62891 -39.757
64.1351 4.47894 -40.019
65.1451 4.09894 -40.109
66.155 4.75897 -14.8023
67.165 4.72638 -14.844
68.175 4.43555 -14.9023
69.1851 4.49084 -19.435
70.1951 4.53729 -22.494
71.2051 4.44098 -24.051
72.215 4.30389 -26.329
73.225 4.21893 -30.139
74.235 4.19891 -37.949
75.2451 4.32697 -37.983
76.2551 4.46301 -37.995
77.2651 4.52295 -38.039
78.2751 4.63293 -38.033
79.285 4.87146 -38.0765
80.295 4.71692 -40.997
81.3051 4.6239 -45.2202
82.315 4.57642 -48.8652
83.3251 4.43689 -52.633
84.3351 4.54395 -52.414
85.345 4.65228 -52.369
86.355 4.59888 -52.739
87.3651 4.57892 -52.749
88.3751 4.44891 -16.674
89.3851 4.57147 -16.6965
90.3951 4.65894 -16.7215
91.405 4.47644 -16.229
92.415 4.43896 -18.843
93.425 4.52393 -21.539
94.4351 4.60693 -23.377
95.4451 4.56891 -27.8023
96.4551 4.32892 -32.794
-96.455 3.5614 27.8525
-95.4449 3.62531 55.6165
-94.435 3.6239 55.656
-93.4249 3.59161 55.8504
-92.415 3.56561 55.5494
-91.4049 3.58826 54.9924
-90.395 3.62701 55.0298
-89.3849 3.60748 55.0218
-88.375 3.56256 55.1475
-87.3649 3.55164 55.2497
-86.355 3.53253 55.3189
-85.3449 3.49792 55.403
-84.335 3.50012 55.1723
-83.325 3.5022 55.0288
-82.3149 3.44763 55.0348
-81.3049 3.50781 55.0499
-80.2949 3.49115 55.0444
-79.285 3.44019 55.0098
-78.275 3.49292 33.316
-77.2648 3.49585 13.2887
-76.2549 3.54602 0.801758
-75.2451 3.49207 -3.87208
-74.2352 3.58148 8.2571
-73.2247 3.67535 9.89825
-72.215 3.6756 -17.1356
-71.205 3.61096 -31.607
-70.1949 3.4989 -53.3215
-69.1849 3.46893 -53.339
-68.1749 3.25391 -53.339
-67.1649 3.57391 -53.304
-66.155 3.93396 -53.329
-65.145 3.84894 -53.319
-64.1349 3.66895 -53.289
-63.1249 3.5589 -53.269
-62.1149 4.00891 -29.069
-61.1049 3.83221 -28.8956
-60.095 3.86493 -28.937
-59.085 3.78699 -29.037
-58.075 3.70392 -29.074
-57.0649 3.86896 -29.099
-56.0549 3.6665 -29.1115
-55.0449 3.40497 -29.107
-54.035 3.36292 -29.099
-53.025 3.55896 -29.0865
-52.015 3.67145 -29.0865
-51.0049 3.64893 -29.065
-49.9949 3.65607 -29.0704
-48.9849 3.63318 -29.059
-47.9749 3.64435 -29.0401
-46.965 3.6189 -29.039
-45.955 3.59662 -29.039
-44.9449 3.6366 -29.049
-43.935 3.65143 -29.0665
-42.9249 3.62036 -29.1113
-41.915 3.58826 -29.1336
-40.9049 3.65161 -29.088
-39.895 3.75671 -29.0456
-38.8849 3.70642 -28.9977
-37.875 3.68774 -28.9823
-36.8649 3.62891 -28.9932
-35.855 3.60382 -29.0023
-34.845 3.64032 -28.9961
-33.835 3.59894 -29.014
-32.825 3.69556 -29.0723
-31.8149 3.69562 -29.069
-30.8049 3.67694 -29.01
-29.7949 3.68561 -28.9667
-28.785 3.70062 -28.9823
-27.775 3.64893 -28.9765
-26.765 3.70392 -28.954
-25.7549 3.84894 -28.9865
-24.7449 3.82892 -28.961
-23.7349 3.67297 -28.959
-22.7249 3.42645 -29.009
-21.715 3.51392 -29.0465
-20.705 3.49139 -29.104
-19.6949 3.42896 -29.114
-18.6849 3.5564 -29.099
-17.6749 3.49323 -29.1018
-16.665 3.36884 -29.113
-15.6549 3.32806 -29.1217
-14.645 3.37622 -29.1162
-13.6349 3.34808 -29.1215
-12.625 3.38983 -29.1299
-11.6149 3.42078 -29.1281
-10.605 3.41809 -29.1105
-9.59491 3.34882 -29.1071
-8.58496 3.30505 -31.034
-7.57501 3.34528 -33.8735
-6.56476 3.34766 -35.1485
-5.55487 3.40143 -38.5573
-4.54492 3.64398 -50.6665
-3.53497 3.63098 -50.467
-2.52496 3.70898 -51.147
-1.51495 3.57141 -52.4415
-0.504944 3.34296 -53.309
0.505066 3.49225 -53.339
1.51508 3.54559 -53.3306
2.52521 3.42883 -53.3047
3.53503 3.43512 -53.2937
4.54498 3.43896 -53.2856
5.55487 3.47449 -53.269
6.56519 3.47498 -53.2596
7.57507 3.47217 -53.2242
8.58496 3.49707 -53.2313
9.59485 3.50958 -53.2048
10.605 3.49896 -52.8315
11.6151 3.32648 -53.1965
12.6251 3.46143 -53.1915
13.6351 3.7489 -53.189
14.6451 3.61298 -53.157
15.655 3.60059 -53.1473
16.665 3.69556 -53.1673
17.675 3.5639 -53.1756
18.6851 3.57318 -53.1732
19.6951 3.59552 -53.184
20.7051 3.65887 -53.1606
21.715 3.69696 -53.141
22.725 3.69141 -53.1715
23.735 3.63641 -53.159
24.7451 3.42145 -53.149
25.7551 3.39288 -53.141
26.7651 3.39685 -53.133
27.7751 3.5329 -53.147
28.785 3.64294 -53.163
29.795 3.60144 -53.169
30.8051 3.5769 -53.191
31.8151 3.56226 -53.2356
32.8251 3.49066 -53.2556
33.8351 3.50391 -53.224
34.845 3.52496 -53.151
35.855 3.68298 -53.007
36.8651 3.64142 -52.9465
37.8751 3.51221 -52.9623
38.8851 3.67395 -52.969
39.8951 3.69891 -41.4123
40.905 3.65033 -29.8547
41.915 3.60602 -25.3404
42.925 3.5365 -19.9015
43.9351 3.63892 -19.9615
44.9451 3.6814 -19.994
45.9551 3.66394 -20.039
46.965 3.59143 -20.054
47.975 3.53394 -20.0815
48.985 3.56561 -20.0256
49.9951 3.3623 -19.999
51.0051 3.34393 -20.134
52.0151 3.3064 -19.1865
53.0251 3.34686 -17.789
54.035 3.4129 -17.003
55.045 3.58142 -16.224
56.0551 3.68896 -16.219
57.0651 3.70148 -16.164
58.0751 3.54694 -18.607
59.0851 3.45691 -23.163
60.095 3.56641 -27.5265
61.105 3.44891 -30.8123
62.1151 3.52893 -37.3765
63.1251 3.724 -37.339
64.1351 3.4856 -22.259
65.1451 3.4165 -14.924
66.155 3.63397 -14.989
67.165 3.60223 -14.9606
68.175 3.38892 -14.917
69.1851 3.49054 -18.744
70.1951 3.61182 -21.8661
71.2051 3.5473 -22.989
72.215 3.5556 -22.489
73.225 3.41895 -26.299
74.235 3.15393 -37.999
75.2451 3.32391 -38.184
76.2551 3.48389 -38.274
77.2651 3.45898 -38.2556
78.2751 3.59491 -38.203
79.285 3.72223 -38.2423
80.295 3.67767 -41.4902
81.3051 3.57031 -46.0247
82.3151 3.36145 -52.594
83.3251 3.36688 -52.655
84.3351 3.48389 -52.6806
85.345 3.65643 -52.6965
86.355 3.65393 -34.754
87.365 3.68896 -16.8523
88.3751 3.56293 -16.799
89.3851 3.44232 -16.7323
90.395 3.47894 -16.699
91.405 3.43091 -16.681
92.415 3.5589 -16.634
93.425 3.5014 -16.574
94.4351 3.51392 -20.6965
95.4451 3.53638 -24.829
96.4551 3.34229 -27.9656
-96.455 2.46893 6.6166
-95.4449 2.54303 9.60574
-94.435 2.46436 31.2165
-93.4249 2.44019 55.6848
-92.4149 2.37396 55.446
-91.4049 2.31018 54.971
-90.395 2.36896 55.0044
-89.3849 2.3689 55.0433
-88.375 2.3302 55.0485
-87.3649 2.30017 55.1973
-86.355 2.33893 55.2135
-85.345 2.43109 55.0333
-84.335 2.55389 55.0336
-83.3249 2.55151 55.0311
-82.3149 2.48993 55.037
-81.3049 2.52258 55.0301
-80.2949 2.49591 55.005
-79.285 2.56976 45.9377
-78.275 2.50964 38.288
-77.2648 2.47894 33.3017
-76.2549 2.44757 24.2579
-75.2451 2.61237 10.2262
-74.2352 2.7356 8.6678
-73.2249 2.71191 12.083
-72.215 2.76172 -21.9675
-71.205 2.75696 -53.361
-70.1949 2.69641 -53.359
-69.1849 2.82385 -53.374
-68.1749 2.64557 -53.3523
-67.1649 2.51392 -53.334
-66.155 2.8689 -53.349
-65.145 2.77393 -53.279
-64.1349 2.69891 -53.239
-63.1249 2.40393 -28.794
-62.1149 2.64697 -28.897
-61.105 2.72223 -28.9956
-60.095 2.69562 -29.0073
-59.085 2.64606 -29.0818
-58.075 2.60321 -29.1447
-57.0649 2.65558 -29.1373
-56.0549 2.46039 -29.1375
-55.0449 2.34229 -29.1406
-54.035 2.3689 -29.111
-53.025 2.4256 -29.0473
-52.015 2.51892 -29.005
-51.0049 2.52887 -29.014
-49.9949 2.47498 -28.973
-48.9849 2.42181 -29.0375
-47.9749 2.41016 -29.089
-46.965 2.34143 -29.039
-45.955 2.30225 -29.0245
-44.9449 2.33496 -29.065
-43.935 2.3009 -29.095
-42.9249 2.25348 -29.099
-41.915 2.24091 -29.114
-40.9049 2.36792 -29.127
-39.895 2.539 -29.0971
-38.8849 2.5799 -29.0299
-37.875 2.54144 -29.0206
-36.8649 2.54529 -29.0171
-35.855 2.56995 -29.007
-34.8449 2.54797 -29.0435
-33.835 2.58551 -29.0656
-32.8249 2.63434 -29.099
-31.8149 2.56976 -29.0906
-30.8049 2.54578 -29.0359
-29.7949 2.56714 -29.0108
-28.785 2.63397 -29.0181
-27.775 2.63202 -29.0543
-26.7648 2.63428 -29.0659
-25.7549 2.68433 -29.0374
-24.7451 2.70166 -29.021
-23.7349 2.65894 -29.0256
-22.7248 2.6004 -29.0211
-21.715 2.63531 -29.0247
-20.705 2.70605 -29.0747
-19.6949 2.77179 -29.099
-18.685 2.81201 -29.0959
-17.6749 2.75226 -29.0898
-16.6649 2.68231 -29.1012
-15.6549 2.68463 -29.1232
-14.645 2.64392 -29.099
-13.6349 2.6449 -29.097
-12.625 2.7489 -29.1045
-11.6149 2.81696 -29.118
-10.605 2.78113 -29.0923
-9.59491 2.59308 -36.0798
-8.58496 2.58649 -41.1048
-7.57495 2.67725 -47.1123
-6.56494 2.70892 -53.094
-5.55493 2.66296 -51.317
-4.54492 2.61292 -49.901
-3.53497 2.67645 -49.554
-2.52496 2.68726 -50.3156
-1.51495 2.62231 -51.564
-0.504944 2.41895 -53.273
0.505066 2.46295 -53.261
1.51508 2.42896 -53.264
2.52509 2.41687 -53.231
3.53503 2.56396 -53.2173
4.54504 2.67059 -53.2056
5.55505 2.67896 -53.1856
6.56506 2.52325 -53.1675
7.57507 2.44891 -53.1904
8.58508 2.48889 -53.231
9.59509 2.50562 -53.2156
10.605 2.56897 -53.191
11.6151 2.51221 -53.229
12.6251 2.76892 -53.2015
13.6351 2.7829 -53.171
14.6451 2.56641 -53.179
15.655 2.55688 -53.169
16.665 2.51697 -53.173
17.675 2.36896 -53.167
18.6851 2.52142 -53.129
19.6951 2.79895 -53.089
20.7051 2.67493 -53.161
21.7151 2.60321 -53.1661
22.725 2.63885 -53.1518
23.735 2.5932 -53.1532
24.7451 2.43494 -53.139
25.7551 2.4549 -53.119
26.7651 2.45691 -53.123
27.7751 2.59698 -53.121
28.785 2.70496 -53.133
29.795 2.69891 -53.149
30.8051 2.64093 -53.169
31.8151 2.53088 -53.165
32.8251 2.32648 -53.1815
33.8351 2.36896 -53.1815
34.845 2.4223 -53.189
35.855 2.62488 -53.063
36.8651 2.65894 -53.0206
37.8751 2.51294 -52.975
38.8851 2.46887 -52.939
39.8951 2.56561 -52.9456
40.905 2.65143 -35.914
41.915 2.74396 -30.404
42.925 2.5564 -26.9465
43.9351 2.49463 -23.659
44.9451 2.55054 -20.029
45.9551 2.52393 -20.0623
46.965 2.5509 -20.079
47.975 2.61389 -20.1015
48.985 2.76892 -20.554
49.9951 2.61646 -20.614
51.0051 2.36688 -20.219
52.0151 2.39142 -20.2415
53.0251 2.37891 -18.919
54.035 2.42102 -17.825
55.045 2.56061 -16.909
56.0551 2.5722 -16.2223
57.0651 2.5672 -16.2006
58.0751 2.64893 -16.193
59.0851 2.69727 -23.1156
60.0951 2.60461 -25.7147
61.105 2.39642 -27.704
62.1151 2.13892 -37.169
63.1251 2.65894 -16.344
64.1351 2.52142 -15.669
65.1451 2.41229 -15.0156
66.155 2.52563 -15.009
67.165 2.56897 -14.9765
68.175 2.38647 -14.969
69.1851 2.40295 -14.939
70.1951 2.5246 -18.2304
71.2051 2.49017 -20.6602
72.215 2.55145 -20.859
73.225 2.50891 -21.7132
74.235 2.23889 -24.035
75.2451 2.39569 -30.1856
76.2551 3.02893 -37.929
77.2651 2.48889 -38.269
78.2751 2.51892 -38.214
79.285 2.63397 -42.8023
80.295 2.70062 -47.604
81.3051 2.65643 -52.569
82.3151 2.5014 -52.604
83.3251 2.45233 -52.6523
84.3351 2.45398 -52.679
85.345 2.60565 -40.769
86.355 2.50391 -25.769
87.3651 2.4339 -16.724
88.3751 2.3764 -16.714
89.3851 2.31647 -16.6815
90.3951 2.51495 -16.671
91.405 2.48724 -16.6556
92.415 2.4939 -16.6256
93.425 2.5329 -16.587
94.4351 2.73096 -21.175
95.4451 2.7489 -24.697
96.4551 2.50391 -25.349
-96.4549 1.20233 -24.764
-95.4449 1.55518 7.48667
-94.4349 1.61737 22.69
-93.4249 1.68091 47.652
-92.4149 1.69885 55.0623
-91.4049 1.70392 54.9285
-90.395 1.61713 45.2347
-89.3849 1.58771 43.1344
-88.375 1.69 55.1688
-87.3649 1.5199 55.1401
-86.355 1.50256 55.0356
-85.3449 1.5025 54.9856
-84.335 1.45807 54.9819
-83.3249 1.4848 54.9894
-82.3149 1.45728 54.9694
-81.3049 1.4007 54.9492
-80.2949 1.35565 54.9488
-79.285 1.40729 45.9244
-78.275 1.34125 38.3126
-77.2648 1.25507 19.1305
-76.2549 1.56207 7.04372
-75.2451 1.65497 3.85184
-74.2349 1.55005 -16.989
-73.2249 1.54749 -53.3604
-72.215 1.51465 -53.379
-71.205 1.52222 -53.3923
-70.1949 1.50226 -53.414
-69.1849 1.57391 -53.409
-68.1749 1.48145 -53.404
-67.1649 1.44391 -53.364
-66.155 1.79895 -53.274
-65.145 1.49896 -37.5456
-64.1349 1.41644 -29.129
-63.1249 1.42645 -28.8065
-62.1149 1.52643 -29.094
-61.1049 1.55646 -29.1065
-60.095 1.53894 -29.0715
-59.085 1.40295 -29.087
-58.075 1.34491 -29.037
-57.0649 1.52393 -29.0165
-56.0549 1.33392 -29.094
-55.0449 1.33643 -29.0765
-54.035 1.3689 -29.049
-53.025 1.56641 -28.9965
-52.015 1.84888 -28.9465
-51.0049 1.73145 -28.9465
-49.9949 1.79059 -29.0123
-48.9849 1.8075 -29.0232
-47.9749 1.81464 -29.059
-46.965 1.85565 -29.094
-45.955 1.73895 -29.0123
-44.9449 1.65558 -29.0056
-43.9349 1.60095 -29.077
-42.9249 1.49084 -29.091
-41.9149 1.35144 -29.029
-40.905 1.50098 -29.003
-39.895 1.69061 -29.004
-38.8849 1.68317 -28.9975
-37.875 1.6217 -28.9932
-36.8649 1.47034 -29.019
-35.855 1.38013 -29.0323
-34.8449 1.33289 -29.038
-33.835 1.35339 -29.069
-32.825 1.41003 -29.1356
-31.8149 1.34338 -29.1312
-30.8049 1.36096 -29.063
-29.7949 1.3739 -29.076
-28.785 1.37317 -29.109
-27.775 1.30463 -29.0947
-26.7649 1.27393 -29.102
-25.7549 1.29803 -29.0673
-24.7451 1.34204 -29.0005
-23.7349 1.29663 -29.0067
-22.7249 1.20728 -29.0698
-21.715 1.25311 -29.1165
-20.705 1.31744 -29.1159
-19.695 1.42896 -29.099
-18.685 1.50537 -29.089
-17.6749 1.49561 -29.0715
-16.665 1.5105 -29.089
-15.6549 1.51819 -29.1204
-14.645 1.466 -29.1125
-13.6349 1.47626 -29.1163
-12.625 1.54498 -29.1263
-11.6149 1.57367 -29.1223
-10.6049 1.60669 -33.0695
-9.59485 1.60016 -34.7442
-8.58496 1.59027 -35.5253
-7.57489 1.62225 -38.9423
-6.56494 1.54895 -45.679
-5.55493 1.50677 -50.9478
-4.54492 1.58026 -51.4465
-3.53497 1.62012 -51.6402
-2.52496 1.55988 -51.722
-1.51495 1.44391 -52.4252
-0.504944 1.36554 -53.2506
0.505005 1.61389 -53.281
1.51514 1.71295 -53.293
2.52521 1.72888 -53.2663
3.53503 1.75604 -53.2409
4.54492 1.8103 -53.2221
5.55487 1.84229 -53.2152
6.56519 1.82471 -53.2122
7.57507 1.85413 -53.2175
8.58496 1.91718 -53.2325
9.59485 1.89081 -53.2295
10.605 1.4223 -53.2023
11.6151 1.54559 -53.2423
12.625 1.65887 -53.2432
13.6351 1.6817 -52.4075
14.6451 1.62885 -52.049
15.655 1.62891 -53.193
16.665 1.59094 -53.197
17.675 1.44495 -53.191
18.6851 1.54688 -53.187
19.6951 1.63147 -53.189
20.7051 1.5769 -53.167
21.715 1.49695 -53.175
22.725 1.56689 -53.165
23.735 1.52087 -53.119
24.7451 1.45142 -53.119
25.7551 1.48224 -53.109
26.7651 1.40466 -53.1018
27.775 1.48889 -53.0904
28.785 1.55029 -53.0947
29.795 1.62091 -53.127
30.8051 1.67889 -53.127
31.8151 1.57092 -53.139
32.8251 1.40393 -53.164
33.8351 1.44891 -53.174
34.845 1.65894 -53.154
35.855 1.68494 -53.067
36.8651 1.67102 -52.997
37.8751 1.53894 -52.959
38.8851 1.26141 -52.919
39.8951 1.40137 -52.8915
40.905 1.61389 -52.904
41.915 1.56561 -40.539
42.925 1.49896 -32.3204
43.9351 1.58521 -29.124
44.9451 1.61719 -22.8356
45.9551 1.41144 -19.004
46.965 1.52283 -20.109
47.975 1.5473 -20.0723
48.985 1.63226 -20.1056
49.9951 1.51727 -20.214
51.0051 1.37396 -20.2356
52.0151 1.41693 -20.265
53.0251 1.45398 -20.2815
54.035 1.40137 -19.2765
55.045 1.53894 -18.2665
56.0551 1.57898 -17.2365
57.0651 1.52393 -16.204
58.0751 1.60095 -16.205
59.0851 1.64893 -16.129
60.0951 1.56561 -20.109
61.105 1.51495 -21.927
62.1151 1.49561 -18.329
63.1251 1.45892 -17.3265
64.1351 1.47223 -17.1056
65.1451 1.37689 -16.883
66.155 1.48145 -15.804
67.165 1.62646 -14.974
68.175 1.4364 -14.9515
69.1851 1.30646 -14.9265
70.1951 1.32892 -14.899
71.2051 1.35889 -14.864
72.215 1.513 -19.459
73.225 1.34058 -22.5323
74.235 1.13147 -20.604
75.2451 1.33643 -26.4115
76.2551 1.50891 -32.3015
77.2651 1.54138 -41.7115
78.2751 1.66016 -44.4102
79.285 1.67889 -48.0565
80.295 1.59094 -52.523
81.3051 1.65894 -52.544
82.3151 1.57227 -52.6023
83.3251 1.56396 -52.589
84.3351 1.33893 -34.704
85.345 1.56226 -16.849
86.355 1.63141 -16.769
87.3651 1.61639 -16.699
88.3751 1.5639 -16.654
89.3851 1.5014 -16.6465
90.3951 1.57892 -16.644
91.405 1.42493 -16.619
92.415 1.44092 -16.597
93.425 1.6189 -16.5565
94.4351 1.69299 -16.553
95.4451 1.6839 -17.1723
96.4551 1.48749 -20.9832
-96.455 0.688904 -2.15695
-95.4449 0.758911 9.46854
-94.435 0.667419 15.5339
-93.4249 0.574707 24.0319
-92.415 0.51709 55.151
-91.4049 0.526978 55.091
-90.395 0.454651 54.9432
-89.3849 0.540894 48.3723
-88.375 0.559692 47.4546
-87.3649 0.395264 55.0092
-86.355 0.477783 54.9966
-85.345 0.517517 54.941
-84.335 0.572266 43.1455
-83.3249 0.548889 45.3138
-82.3149 0.504944 54.99
-81.3049 0.521851 54.9882
-80.2949 0.50116 42.9177
-79.285 0.496155 25.4265
-78.2749 0.358337 18.4366
-77.2648 0.512939 8.23185
-76.2549 0.64325 1.23354
-75.2449 0.708923 -12.6152
-74.2349 0.533936 -35.1823
-73.2249 0.318848 -53.334
-72.215 0.29895 -53.3865
-71.205 0.29895 -53.4115
-70.1949 0.288879 -53.379
-69.1849 0.413879 -53.384
-68.1749 0.253906 -53.3565
-67.1649 0.0189209 -53.314
-66.155 0.608948 -29.529
-65.145 0.598938 -29.059
-64.1349 0.74646 -28.834
-63.1249 0.70697 -28.975
-62.1149 0.723938 -29.0715
-61.1049 0.756409 -29.0965
-60.095 0.738953 -29.0965
-59.085 0.633911 -29.0715
-58.075 0.576416 -29.054
-57.0649 0.746399 -29.0815
-56.0549 0.546448 -29.094
-55.0449 0.540894 -29.055
-54.035 0.55896 -29.034
-53.025 0.660583 -29.0256
-52.015 0.665161 -28.9052
-51.0049 0.507935 -28.789
-49.995 0.52887 -28.7673
-48.9849 0.535583 -28.824
-47.9748 0.559692 -28.9951
-46.965 0.597412 -29.0628
-45.955 0.55896 -29.0566
-44.9449 0.524292 -29.0713
-43.935 0.579834 -29.0626
-42.9249 0.625366 -29.0599
-41.915 0.573975 -29.058
-40.9049 0.599976 -29.079
-39.895 0.678955 -29.0744
-38.8849 0.685913 -29.044
-37.875 0.710632 -29.054
-36.8649 0.663452 -29.048
-35.855 0.561829 -28.9904
-34.845 0.55896 -28.9618
-33.835 0.59021 -29.0265
-32.825 0.643188 -29.0704
-31.8149 0.615112 -29.0965
-30.8049 0.656616 -29.0645
-29.7949 0.76886 -29.0356
-28.785 0.823853 -29.0277
-27.775 0.770142 -29.0577
-26.765 0.747253 -29.0823
-25.7549 0.766418 -29.039
-24.7449 0.738892 -29.051
-23.7349 0.575623 -29.0973
-22.7249 0.370911 -29.117
-21.715 0.398926 -29.034
-20.705 0.366455 -28.919
-19.6949 0.440918 -28.893
-18.685 0.463867 -28.914
-17.6749 0.39386 -28.9881
-16.665 0.39386 -29.104
-15.6549 0.378906 -29.121
-14.645 0.278076 -29.1165
-13.6349 0.255798 -29.1166
-12.625 0.341919 -29.128
-11.6149 0.420654 -32.0415
-10.6049 0.43573 -34.6479
-9.59491 0.35437 -36.176
-8.58496 0.258057 -39.9399
-7.57495 0.308899 -51.6415
-6.56494 0.270935 -50.893
-5.55493 0.457275 -50.4356
-4.54492 0.618896 -50.6356
-3.53497 0.602234 -51.9356
-2.52496 0.448914 -52.555
-1.51495 0.194946 -53.231
-0.504944 0.244812 -53.2665
0.504944 0.29895 -53.2621
1.51501 0.306763 -53.2456
2.52521 0.3078 -53.2384
3.53503 0.349854 -53.2171
4.54492 0.388123 -53.186
5.55487 0.4021 -53.175
6.56519 0.401001 -53.1886
7.57507 0.401978 -53.2171
8.58496 0.408936 -53.2342
9.59485 0.418091 -53.2364
10.605 0.386902 -53.231
11.6151 0.458923 -53.2465
12.6251 0.644897 -53.233
13.6351 0.662292 -53.2223
14.645 0.558899 -53.2473
15.655 0.516113 -53.2504
16.665 0.477478 -53.2532
17.675 0.480896 -53.235
18.6851 0.570923 -53.185
19.6951 0.557007 -53.177
20.7051 0.606934 -53.177
21.715 0.528931 -53.173
22.725 0.518921 -53.114
23.735 0.546936 -53.095
24.7451 0.59491 -53.123
25.7551 0.546387 -53.1015
26.7651 0.283936 -53.064
27.7751 0.356873 -53.071
28.785 0.466919 -53.079
29.795 0.638977 -53.0915
30.8051 0.633972 -53.104
31.8151 0.483215 -53.1175
32.8251 0.422913 -53.151
33.8351 0.436951 -53.143
34.845 0.578918 -53.139
35.855 0.720947 -53.113
36.8651 0.73645 -53.049
37.8751 0.61554 -53.0056
38.8851 0.482239 -53.0456
39.8951 0.492249 -52.9323
40.905 0.455566 -52.8856
41.915 0.418945 -52.904
42.925 0.305603 -40.539
43.9351 0.388916 -35.3715
44.9451 0.504517 -31.8001
45.9551 0.501953 -26.978
46.965 0.438965 -19.327
47.975 0.426392 -20.1665
48.985 0.576416 -20.204
49.9951 0.42395 -20.229
51.0051 0.233887 -20.254
52.0151 0.366943 -20.287
53.0251 0.422302 -20.314
54.035 0.377258 -20.3506
55.045 0.455566 -19.684
56.0551 0.507263 -18.979
57.0651 0.533875 -17.5956
58.0751 0.603882 -16.769
59.0851 0.631409 -18.019
60.095 0.568909 -18.704
61.105 0.42395 -18.5215
62.1151 0.556396 -18.194
63.1251 0.561401 -18.0665
64.1351 0.385559 -18.129
65.1451 0.225586 -17.1323
66.155 0.575623 -16.0923
67.165 0.766418 -15.034
68.175 0.583923 -15.004
69.1851 0.461426 -14.9765
70.1951 0.478943 -14.919
71.2051 0.508972 -14.889
72.215 0.626953 -19.505
73.225 0.422302 -22.5773
74.235 0.271362 -20.6515
75.2451 0.338867 -22.6856
76.2551 0.392273 -32.7273
77.2651 0.50885 -44.2675
78.2751 0.600952 -46.751
79.285 0.555603 -52.509
80.295 0.626343 -52.5515
81.3051 0.567322 -52.5856
82.3151 0.494995 -52.605
83.3251 0.496399 -43.3515
84.3351 0.132263 -16.2456
85.3451 0.438904 -16.4306
86.355 0.452209 -16.7056
87.3651 0.432312 -16.7073
88.3751 0.460876 -16.703
89.3851 0.501404 -16.6515
90.3951 0.578918 -16.599
91.405 0.423889 -16.589
92.415 0.448975 -16.5765
93.425 0.648926 -16.544
94.4351 0.668945 -16.5215
95.4451 0.583923 -16.4765
96.4551 0.320923 -19.029
-96.455 -0.611084 -51.0765
-95.4449 -0.549866 -7.10646
-94.435 -0.508911 -13.7975
-93.4249 -0.546997 -6.48988
-92.415 -0.549622 3.91954
-91.4049 -0.536072 28.0444
-90.395 -0.692505 55.0039
-89.3849 -0.692139 54.981
-88.375 -0.599792 54.9785
-87.3649 -0.634766 55.011
-86.355 -0.485107 55.0401
-85.3449 -0.421936 55.062
-84.335 -0.466125 55.057
-83.3249 -0.4646 55.0238
-82.3149 -0.470215 54.9944
-81.3049 -0.45697 54.9585
-80.2949 -0.433594 45.9277
-79.2851 -0.460449 29.9177
-78.2747 -0.389893 14.531
-77.2648 -0.360962 10.4725
-76.2549 -0.314453 -4.96563
-75.2449 -0.171082 -35.154
-74.2349 -0.331116 -53.334
-73.2249 -0.471069 -53.359
-72.215 -0.49353 -53.3715
-71.205 -0.493591 -53.374
-70.1949 -0.501099 -53.3815
-69.1849 -0.378601 -53.379
-68.1749 -0.367737 -53.3756
-67.1649 -0.408508 -53.3765
-66.155 -0.396057 -47.164
-65.145 -0.317688 -28.7256
-64.1349 -0.407715 -28.9256
-63.125 -0.50824 -29.0475
-62.1149 -0.442688 -29.129
-61.105 -0.436096 -29.1306
-60.095 -0.438171 -29.1318
-59.085 -0.518188 -29.1204
-58.075 -0.617737 -29.0556
-57.0649 -0.519348 -29.0456
-56.0549 -0.597107 -29.065
-55.0449 -0.493591 -29.044
-54.035 -0.541077 -29.059
-53.025 -0.551086 -29.0218
-52.015 -0.561096 -29.3267
-51.0049 -0.668518 -29.1765
-49.9949 -0.671143 -28.634
-48.9849 -0.679871 -28.809
-47.9749 -0.677673 -28.989
-46.965 -0.612488 -29.0275
-45.955 -0.716553 -29.0367
-44.9449 -0.770142 -29.0517
-43.935 -0.661133 -29.0548
-42.9249 -0.557495 -29.0262
-41.915 -0.5802 -29.0053
-40.9049 -0.612122 -29.031
-39.895 -0.527039 -29.106
-38.8849 -0.551941 -29.1006
-37.875 -0.531067 -29.041
-36.8649 -0.501953 -29.008
-35.855 -0.516907 -29.0181
-34.8449 -0.503052 -28.998
-33.835 -0.491089 -29.01
-32.8249 -0.437805 -29.0498
-31.8149 -0.470154 -29.0599
-30.8049 -0.4328 -29.004
-29.7949 -0.427185 -29.0076
-28.7851 -0.444946 -29.0676
-27.775 -0.453186 -29.0854
-26.7648 -0.428162 -29.0904
-25.7549 -0.376099 -29.1018
-24.7451 -0.366394 -29.085
-23.7349 -0.3703 -29.1161
-22.7249 -0.322815 -29.1208
-21.715 -0.33197 -29.0906
-20.705 -0.326965 -29.0798
-19.6949 -0.327698 -29.074
-18.685 -0.297424 -29.0317
-17.6749 -0.33667 -29.0067
-16.6649 -0.312195 -29.0745
-15.6549 -0.312195 -29.1012
-14.645 -0.397705 -29.099
-13.6349 -0.4729 -31.1026
-12.625 -0.404236 -34.9283
-11.615 -0.228882 -37.0756
-10.605 -0.128113 -41.121
-9.59497 -0.413025 -53.045
-8.58496 -0.51709 -52.659
-7.57495 -0.601074 -50.7723
-6.56494 -0.651062 -50.274
-5.55493 -0.527039 -51.185
-4.54492 -0.383545 -52.394
-3.53497 -0.345093 -53.251
-2.52496 -0.45105 -53.213
-1.51495 -0.636047 -53.1965
-0.504944 -0.671082 -53.1815
0.505066 -0.424377 -53.1573
1.51508 -0.339417 -53.1606
2.52509 -0.505066 -53.139
3.53503 -0.535339 -53.099
4.54504 -0.522766 -53.104
5.55505 -0.535095 -53.171
6.56506 -0.396057 -53.1773
7.57507 -0.367065 -53.169
8.58508 -0.573547 -53.1815
9.59503 -0.581116 -53.167
10.605 -0.607117 -53.201
11.6151 -0.51355 -53.2515
12.6251 -0.34314 -53.237
13.6351 -0.387085 -53.245
14.6451 -0.603577 -53.2315
15.655 -0.598572 -53.1965
16.665 -0.646057 -53.1715
17.675 -0.841064 -53.1756
18.6851 -0.607117 -53.169
19.6951 -0.522461 -53.1861
20.7051 -0.49823 -53.2104
21.7151 -0.566772 -53.1932
22.725 -0.503052 -53.177
23.735 -0.385071 -53.129
24.7451 -0.341064 -53.119
25.7551 -0.289062 -53.107
26.7651 -0.371094 -53.0965
27.7751 -0.474426 -53.039
28.785 -0.463562 -53.0515
29.795 -0.441101 -53.079
30.8051 -0.51709 -53.053
31.8151 -0.629089 -53.075
32.8251 -0.551086 -53.1165
33.8351 -0.506042 -53.1215
34.845 -0.457092 -53.133
35.855 -0.383911 -53.1447
36.8651 -0.406738 -53.1461
37.875 -0.502747 -53.1206
38.8851 -0.524414 -53.0656
39.8951 -0.439026 -52.977
40.905 -0.506042 -52.8715
41.915 -0.487793 -52.8656
42.925 -0.406128 -52.884
43.9351 -0.404358 -40.559
44.9451 -0.468567 -35.414
45.9551 -0.482727 -29.9206
46.965 -0.489441 -24.5056
47.975 -0.486084 -20.199
48.985 -0.333557 -20.249
49.9951 -0.483582 -20.279
51.0051 -0.68103 -20.304
52.0151 -0.706055 -20.3215
53.0251 -0.76355 -20.3315
54.035 -0.741028 -20.3823
55.045 -0.476074 -19.359
56.0551 -0.503052 -18.715
57.0651 -0.49707 -17.919
58.0751 -0.472717 -18.174
59.0851 -0.389099 -18.703
60.095 -0.303589 -18.7265
61.105 -0.44104 -18.664
62.1151 -0.298523 -18.479
63.1251 -0.317017 -18.345
64.1351 -0.505127 -18.269
65.1451 -0.641113 -18.159
66.155 -0.247742 -16.9923
67.165 -0.327698 -15.9723
68.175 -0.425049 -15.069
69.1851 -0.545044 -15.043
70.1951 -0.622742 -14.9873
71.2051 -0.616028 -14.9373
72.215 -0.527039 -14.889
73.225 -0.561096 -14.8615
74.235 -0.478577 -14.784
75.2451 -0.341064 -14.759
76.2551 -0.451111 -35.869
77.2651 -0.451111 -46.727
78.2751 -0.376099 -52.5665
79.285 -0.391113 -52.564
80.295 -0.44104 -52.549
81.3051 -0.464355 -52.569
82.3151 -0.601074 -52.544
83.3251 -0.707764 -27.7223
84.3351 -0.781006 -15.9915
85.345 -0.663574 -16.6965
86.355 -0.64856 -16.6965
87.3651 -0.658569 -16.659
88.3751 -0.57312 -16.655
89.3851 -0.532715 -16.629
90.3951 -0.393066 -16.571
91.405 -0.406067 -16.539
92.415 -0.45105 -15.369
93.425 -0.248535 -15.3415
94.4351 -0.161072 -16.469
95.4451 -0.243591 -16.4815
96.4551 -0.473572 -16.459
-96.455 -1.91107 -50.509
-95.4449 -1.94104 -51.334
-94.4349 -1.98108 -52.289
-93.4249 -1.70105 -5.51896
-92.415 -1.56738 3.82472
-91.405 -1.51917 13.0263
-90.395 -1.40436 46.3669
-89.3849 -1.43604 55.0602
-88.375 -1.49023 54.9711
-87.3649 -1.50653 54.9447
-86.355 -1.55023 54.9702
